4.97086,5.05986,4.72494,4.33814,4.57475,4.81383,4.98649,4.71412,4.74589,5.01061,4.81102,4.56167,4.92498,4.63866,4.72167,4.44696,4.1633,4.37046,4.3383,4.59022,4.63074,5.05469,4.80851,4.55804,4.60845,5.17822,5.08554,5.1166,5.53198,5.65387,5.38351,4.86137,4.86164,5.12001,5.25815,5.01281,4.97511,4.69588,4.79623,4.85923,5.01405,5.08138,5.08036,5.19531,5.02801,5.33896,5.29341,5.51458,5.29115,5.06535,4.81301,4.86598,4.50118,4.89243,5.35028,5.31089,5.62435,5.72286,5.65264,5.49182,5.2865,5.22981,4.99563,5.16557,4.96799,5.22476,5.4569,5.13872,5.22043,5.01198,4.84019,4.91224,5.17673,5.26957,5.20113,5.11011,4.72548,4.61308,4.79059,4.77021,4.88689,4.50085,4.82871,5.01571,5.07072,4.82495,4.75281,4.99568,5.40109,5.71932,5.62911,6.15125,6.27913,6.29068,6.06714,6.43511,6.48518,6.4568,6.52785,6.58054,6.80012,6.75776,6.92778,7.02287,7.41073,7.14917,7.3151,7.03616,7.467,7.05187,7.15957,7.63799,8.01095,7.97586,7.55521,7.69991,7.56164,7.97673,8.00599,8.35021,8.24709,7.89118,7.55157,7.61371,7.79518,7.71581,7.8027,7.82069,7.65022,7.48262,7.51263,7.63202,7.6206,7.45777,7.55827,7.14929,7.32955,7.63511,7.43825,7.68635,7.86735,7.37204,7.4716,7.17738,7.20287,7.19051,7.46829,7.68914,7.95837,7.99659,8.33528,7.9214,7.90064,7.94969,7.60941,7.94373,8.15917,8.58591,8.53265,8.96719,8.80052,8.52453,8.62482,8.52652,8.31658,8.63796,8.48972,8.52396,8.30242,8.14397,8.45837,8.49102,8.66991,8.86179,8.992,8.95336,8.77678,8.92708,8.97189,8.53779,8.48018,8.37158,8.13653,7.69549,7.58274,7.90765,7.82781,8.11013,8.72478,8.461,8.40706,8.15146,8.35698,8.17651,8.05096,8.21227,8.06359,7.84307,8.03312,7.95935
4.78487,4.83469,4.92212,4.52173,4.40479,4.44432,4.73762,4.97477,4.68181,4.76279,4.54644,4.69708,4.67681,4.38428,4.63048,4.3732,4.10233,4.43538,4.48653,4.40808,4.44555,4.80888,4.71709,4.73451,4.59004,4.88405,4.88914,4.82785,5.14916,5.68156,5.42838,5.29725,4.95424,4.96731,4.95929,4.87041,4.98773,5.11679,4.98654,4.98415,5.05061,4.88289,4.91954,4.81628,4.69778,4.73661,4.74246,5.22004,5.12851,4.9652,5.13792,5.25641,4.94899,4.73381,4.90434,4.82304,5.29665,5.64529,5.58315,5.61916,5.74293,5.43711,5.44848,5.33549,5.4173,5.11535,5.07135,5.31279,5.02669,4.73242,4.77853,5.07656,4.98925,5.36154,5.17857,4.96087,5.12049,4.71403,4.69379,4.58366,4.74135,4.74688,4.69488,5.09188,5.06805,4.65763,4.75383,4.73311,5.21722,5.17758,5.37367,6.03194,6.01176,6.24023,6.33926,6.23129,6.29608,6.26945,6.44754,6.47446,6.81516,6.6024,7.04608,6.82809,7.25372,7.3634,7.55143,7.02513,7.02891,6.90557,6.97668,7.46499,7.69093,7.66027,7.62583,7.53827,7.59047,8.07379,8.1354,8.46702,8.42911,7.93731,7.87362,7.4981,7.59268,7.66228,7.95144,7.9912,7.9944,7.46481,7.20281,7.49648,7.74115,7.49774,7.58351,7.07951,7.25507,7.16859,7.16356,7.6468,7.79147,7.54212,7.70871,7.55213,7.43931,7.06281,7.29405,7.68097,8.00736,7.77325,8.33965,7.88721,8.06221,8.19414,7.87878,7.80929,7.98097,8.18835,8.41158,8.60014,8.86552,8.79247,8.56602,8.83374,8.84489,8.52446,8.637,8.35294,8.10273,8.23179,8.14979,8.41695,8.72514,8.55344,9.05962,9.20327,9.17268,8.86373,8.8009,8.55309,8.55268,8.76095,8.15223,7.72898,7.87742,7.69682,8.03881,8.09844,8.5516,8.73468,8.69819,8.3637,8.41973,8.34255,8.44272,8.08742,7.85059,8.12082,8.27636,8.3713
4.7125,4.73839,4.99617,4.63351,4.46174,4.63287,4.86073,4.83349,4.99942,4.59449,4.444,4.37872,4.78137,4.4362,4.56147,4.19961,3.88166,4.09866,4.02035,4.10205,4.38597,4.77518,4.96462,4.93995,4.50226,4.90758,5.09313,5.17886,5.23666,5.75546,5.50464,5.13151,4.74673,4.96947,4.91741,4.83244,4.65949,4.60701,4.65156,4.72787,5.12053,5.03319,5.18445,5.1296,4.9801,4.95349,4.66728,4.82807,5.10936,5.21448,5.47288,5.25401,4.92028,4.70577,4.73981,4.90851,4.8588,5.1904,5.36905,5.26354,5.60254,5.31232,5.26913,5.20046,5.51762,5.17446,5.0081,5.20936,5.06701,4.91993,4.94243,4.90962,5.06766,5.09469,5.14032,5.17574,5.17463,5.00831,4.8575,4.43047,4.40667,4.49104,4.76471,4.96829,5.17462,4.64291,4.59682,4.55774,4.83504,4.86903,4.83425,5.20279,5.69135,5.89115,6.09984,6.22818,6.26437,5.98585,6.23546,6.55051,6.77091,6.40269,6.57658,6.857,6.90797,7.12111,7.45494,7.41608,6.97787,7.01302,6.9028,7.33216,7.67972,7.71484,7.63811,7.34288,7.38038,7.76165,7.82951,7.97619,8.31459,8.31338,8.03668,7.96066,8.01797,7.96779,7.7769,7.84422,7.89281,7.84135,7.61549,7.70647,7.71925,7.5638,7.52122,7.05243,7.0536,7.14001,7.13202,7.33885,7.83348,7.67311,7.7637,7.79952,7.51241,7.22921,7.17107,7.4623,7.98696,7.8826,8.06245,8.06097,7.89117,8.04511,7.88565,8.06061,7.80145,7.96896,8.02037,8.21876,8.78579,8.88346,8.95389,9.03629,9.20532,9.02957,8.79252,8.47638,8.25752,8.52836,8.20371,8.2002,8.18732,8.26617,8.71515,9.0183,9.11533,8.82675,8.63338,8.36681,8.51923,8.60912,8.35293,8.10529,8.0135,7.63334,7.68064,7.85061,8.26383,8.59834,8.76574,8.53178,8.71908,8.54989,8.76721,8.50389,8.02999,8.06699,7.98433,8.07426
4.83703,4.68497,4.65599,4.90452,4.87022,4.69193,4.9462,5.03359,5.27998,5.17924,4.52275,4.61571,4.69109,4.62379,4.67881,4.6106,4.53863,4.19604,4.32303,4.40049,4.09867,4.58559,4.59938,4.71434,4.76026,5.04601,5.15233,5.14843,5.30154,5.72647,5.52772,5.22744,5.12087,4.97158,4.77173,4.64168,4.62043,4.38491,4.67074,4.49564,5.08111,5.27945,5.40862,5.30081,5.38553,5.32901,5.21498,4.9654,4.93604,5.34309,5.20005,5.40802,5.20573,4.96667,4.85939,4.58998,5.00448,4.92553,5.05098,5.06583,5.51213,5.66944,5.20635,5.32938,5.40045,5.29321,5.32202,5.45328,5.37788,4.93306,4.79173,5.05971,4.84406,4.87322,5.3009,5.33659,5.06235,5.21404,5.07131,4.83231,4.49912,4.66908,4.83633,5.16789,5.34531,5.11091,4.5904,4.64584,4.55525,4.6159,4.94681,5.28182,5.34347,5.51054,5.74002,6.17222,6.39004,6.44462,6.07858,6.33147,6.38191,6.16221,6.33935,6.60716,6.66353,6.93545,7.43536,7.26705,7.17257,7.21466,7.01076,7.13538,7.58744,7.51591,7.30749,7.4056,7.60562,7.80276,7.97841,7.88513,8.3094,8.40237,7.94563,7.85159,8.03933,7.95156,7.75987,7.67037,7.52662,7.90975,7.73351,7.52288,7.77811,7.75773,7.78233,7.43868,6.97599,7.32363,7.39476,7.18201,7.53167,7.82586,7.9713,8.11004,7.7509,7.24595,6.94257,7.38482,7.62805,7.71687,7.76753,7.64762,7.62277,7.85863,8.14139,8.17301,8.20047,7.93424,8.04431,8.40815,8.48042,8.38683,8.57141,8.84987,9.0711,9.33722,9.29319,8.64996,8.21101,8.36656,8.26168,8.18428,8.22051,8.39061,8.36203,8.5197,8.83782,9.05452,8.99501,8.6231,8.84815,8.92886,8.7644,8.27751,8.23052,8.07228,7.94245,8.11332,8.30717,8.71387,8.95493,8.83367,9.04256,8.76132,8.47472,8.38093,8.09407,8.15696,7.81963,7.81897
5.0162,5.11122,4.74252,4.94383,5.13083,5.13663,4.7747,4.90872,5.01935,5.26787,4.95492,4.78379,4.68524,4.69457,4.79512,4.71689,4.38006,4.03498,4.46965,4.28602,4.22679,4.14961,4.66266,4.54113,4.87041,4.84039,4.89296,4.99143,5.40312,5.30532,5.3221,5.22531,5.04628,5.06811,4.66491,4.40189,4.31876,4.07314,4.36102,4.27578,4.78511,5.28043,5.34055,5.56511,5.34473,5.60413,5.14934,5.04447,5.1514,5.16061,5.07202,5.51782,5.61371,5.07926,4.96675,4.85017,4.6927,4.54161,4.59254,5.02388,5.22632,5.26154,4.95908,5.04313,5.33288,5.33992,5.24062,5.06773,5.10468,4.81809,4.92006,4.87789,5.04836,4.72367,5.23584,5.49359,5.35781,5.16174,5.04678,4.6492,4.59699,4.89433,4.85953,4.83029,4.9798,4.89646,4.59884,4.65558,4.36841,4.79152,4.9973,4.94538,4.97429,5.38439,5.2865,5.67987,6.04982,6.36791,6.30436,6.36143,6.57932,6.39831,6.49291,6.67982,6.89092,7.20133,7.41546,7.28777,7.33735,7.3583,7.30293,7.44222,7.45574,7.45585,7.26318,7.11351,7.14957,7.50391,7.65302,7.80757,8.12183,8.34172,8.17625,8.16894,7.95512,8.23304,8.0679,7.84322,7.48071,7.50789,7.40579,7.32318,7.30378,7.46775,7.44526,7.70669,7.07479,7.37776,7.10686,6.95058,7.04338,7.60614,7.75312,7.69589,7.46128,7.27268,7.13539,6.97651,7.24738,7.64071,7.95777,7.90497,7.56141,7.41311,7.49666,7.72807,7.92767,8.15637,7.95283,8.4161,8.45809,8.24543,8.45013,8.47201,8.49884,8.91318,9.14861,8.65728,8.21417,8.5265,8.45741,8.12481,7.97139,8.45246,8.50986,8.26051,8.29385,8.4656,8.74571,8.54208,8.75945,8.80346,8.97841,8.84686,8.51516,8.51164,8.35814,8.32876,8.45451,8.69105,8.72956,8.58167,8.80956,8.57117,8.70205,8.37512,8.13473,8.29162,8.19983,7.82882
5.22018,5.44808,4.89964,4.99679,5.05457,5.33425,5.19894,5.23156,5.09923,5.19404,5.09341,5.16044,4.69886,4.83517,4.66385,4.9015,4.52242,4.51316,4.35233,4.56664,4.49573,4.51213,4.82852,4.73396,4.83656,4.70133,4.88348,4.74693,5.08094,5.29536,5.06069,4.9635,4.91429,5.16784,4.7816,4.39343,4.53483,4.47338,4.51792,4.29813,4.50862,5.07388,4.96562,4.98114,5.43469,5.41902,5.09843,4.91049,5.07816,5.21758,4.9468,5.11512,5.37726,5.40722,5.36225,4.8385,4.81146,4.92627,4.69105,5.10439,5.11751,5.44435,5.4233,5.39157,5.08867,5.28627,5.20298,5.30947,5.39853,5.10119,5.18385,4.73305,5.12946,4.71039,4.82956,4.99553,4.99126,5.01427,4.89252,4.8283,4.60117,4.55264,4.86264,4.9028,4.72447,4.60639,4.62169,4.58729,4.39075,4.50239,4.5368,4.81685,4.84629,4.88508,4.83707,5.31944,5.55951,5.69641,6.01638,6.09097,6.0453,6.27334,6.41911,6.32307,6.82522,6.95791,7.22948,7.40114,7.08637,7.07691,7.15382,7.55427,7.29036,7.10049,7.1255,7.12253,7.1702,7.28042,7.34288,7.3855,7.81341,8.33158,8.4718,8.04603,8.16006,8.18301,7.94908,8.01871,7.84227,7.75158,7.51114,7.65352,7.30254,7.46246,7.73803,7.97538,7.5744,7.33433,7.49651,7.43821,6.96073,7.17289,7.34216,7.67891,7.73788,7.58204,7.55673,7.45109,7.46612,7.29942,7.32894,7.52104,7.63849,7.47343,7.38841,7.67061,7.73108,7.81464,7.62817,8.32024,8.53395,8.21707,8.29191,8.59299,8.73844,8.65816,8.94641,8.71971,8.19759,8.27161,8.5852,8.62911,8.3604,8.36666,8.53555,8.42166,8.61498,8.3595,8.30982,8.1892,8.6734,8.54608,8.76492,9.01363,8.73322,8.76053,8.80212,8.27269,8.65613,8.59349,8.71416,8.60703,8.99604,8.48749,8.47984,8.6426,8.45387,8.60735,8.13015,7.71417
5.19955,5.10177,4.80916,4.99907,4.95231,5.08403,5.02247,5.4204,5.06501,5.3874,5.50117,5.24083,5.06984,5.16402,4.65431,5.02592,4.95398,4.53293,4.61916,4.49762,4.44848,4.55394,4.83153,4.9976,5.07195,5.08146,5.09631,5.13098,5.15286,4.98397,5.31747,5.23892,5.27133,5.20993,4.97121,4.78418,4.71658,4.54276,4.82767,4.44061,4.22521,4.57931,4.5906,4.59937,5.31588,5.44911,5.54665,5.50671,5.514,5.09986,5.20329,5.11142,5.21221,5.47669,5.26797,4.78006,4.86115,4.79005,4.68852,5.1102,5.1108,5.55046,5.73061,5.75033,5.60167,5.69501,5.54745,5.29275,5.26484,5.37252,5.33356,4.9243,4.76861,4.55724,4.77117,4.65486,4.81131,4.99131,4.91349,4.58704,4.40719,4.25416,4.59173,4.81641,4.76039,4.81729,4.62236,4.83955,4.48336,4.51113,4.67249,4.48936,4.53116,4.57691,4.83455,5.2284,5.46192,5.61055,5.98046,6.22009,6.00097,6.10933,6.0365,6.13575,6.27345,6.72873,7.16769,7.25957,7.43976,7.29963,7.0457,7.1319,7.20229,6.86431,6.80255,7.11999,6.91195,6.97006,7.39648,7.27458,7.74648,8.11708,8.28104,8.06178,7.82685,8.01241,7.75411,8.14536,8.05554,7.99642,7.46282,7.59135,7.35856,7.18442,7.4607,7.6307,7.67433,7.34223,7.62348,7.73141,7.17308,7.0889,7.30946,7.42278,7.28599,7.73275,7.41371,7.42185,7.31476,7.40943,7.33074,7.62617,7.52981,7.54863,7.54014,7.61563,7.46379,7.50039,7.49997,7.91727,8.40105,8.46938,8.34096,8.22452,8.31779,8.70498,8.97761,9.10032,8.39272,8.10441,8.31555,8.43494,8.10808,8.19401,8.49939,8.49881,8.70114,8.42958,8.6679,8.36461,8.26237,8.37138,8.35359,8.94635,8.68008,8.57332,8.58482,8.67967,8.48954,8.24349,8.28298,8.55973,8.62381,8.28867,8.16145,8.28279,8.21269,8.51144,8.17907,7.89733
5.37254,5.4832,5.15444,5.30623,5.02771,4.86137,5.0535,5.33124,5.01691,5.3727,5.51424,5.66633,5.34323,5.30693,4.79586,4.78708,4.78443,4.4787,4.33841,4.26904,4.3574,4.2733,4.49502,4.93174,5.16309,5.38526,5.33505,5.05068,5.17826,5.17846,5.17488,5.0182,5.04006,4.90858,5.02322,4.69777,4.77577,4.74507,4.71455,4.39045,4.42058,4.29935,4.54605,4.50887,4.99688,5.05036,5.25646,5.28,5.1038,5.16771,4.98158,4.86074,5.27395,5.48434,5.27155,5.18146,5.12086,4.79982,4.74174,5.04896,5.23043,5.64841,5.39719,5.50018,5.7649,5.43904,5.36243,5.24684,5.32074,5.16111,5.36078,4.91167,4.64899,4.58944,4.78589,4.8749,4.84948,4.77244,4.75801,4.77605,4.87449,4.45055,4.3365,4.34235,4.29083,4.43096,4.76329,4.71825,4.38989,4.59132,4.4214,4.7204,4.6508,4.66323,4.46431,4.79832,5.01203,5.26876,5.8861,6.04781,5.8341,5.90459,5.82238,6.208,6.00577,6.57567,6.83613,6.7631,7.03437,6.99297,6.8117,7.16838,6.92445,6.96286,6.60873,6.87301,7.07211,6.844,7.37062,7.39156,7.69088,7.80996,7.92665,7.85441,8.00714,8.12187,8.12415,8.05566,8.05202,7.74566,7.67395,7.48592,7.71268,7.34841,7.60614,7.45013,7.77501,7.77627,7.89275,7.99988,7.61697,7.40087,7.47703,7.553,7.54005,7.88075,7.6942,7.48449,7.66005,7.34693,7.30909,7.17253,7.57289,7.54111,7.76013,7.49431,7.76802,7.67792,7.44373,7.82831,8.18784,8.21565,8.12946,8.13549,8.33961,8.64615,8.79456,8.7352,8.54571,8.11408,8.23438,8.31947,8.36681,8.05411,8.20463,8.14973,8.58378,8.3226,8.41651,8.11175,8.1279,8.07033,8.00974,8.61926,8.76693,8.47528,8.81679,8.69875,8.54032,8.57608,8.20938,8.48807,8.42953,8.32034,8.43843,8.29296,8.04152,8.00168,7.90112,7.61267
5.19013,5.20735,4.93491,4.86076,4.76068,4.90787,4.70647,4.93147,4.77639,5.11027,5.20617,5.24605,5.43532,5.40548,5.389,4.94675,4.94463,4.91112,4.7465,4.512,4.3197,4.10873,4.05227,4.44468,5.07154,5.29033,5.51171,5.2932,5.2329,5.3724,5.21485,5.23489,4.841,4.64746,4.59349,4.35463,4.73834,4.66413,4.85333,4.36422,4.32321,4.29306,4.3456,4.68868,4.71468,4.72127,5.27776,5.24678,4.9949,5.2802,5.11082,5.18004,5.42009,5.36987,5.13237,5.00563,5.11318,5.10896,5.09389,4.97768,4.8842,5.41132,5.19622,5.22299,5.51416,5.5069,5.15729,5.11466,5.35664,5.27942,5.22343,4.9675,4.59153,4.65328,4.50404,4.85016,4.69376,4.7439,4.72628,4.72707,4.78281,4.84317,4.40662,4.55249,4.66181,4.62759,4.65331,4.47769,4.46526,4.79418,4.8621,4.81657,4.534,4.59598,4.78724,4.88198,4.98771,5.13812,5.68856,5.8993,6.00289,5.84835,5.65211,5.90349,5.72385,5.86953,6.34795,6.66457,6.65714,6.93859,6.6007,7.10918,7.01289,7.1411,7.06433,6.85917,7.17305,7.0719,7.23051,7.09316,7.46097,7.49357,7.51894,7.47323,7.72033,7.93307,8.20891,8.19545,8.38884,7.90085,8.03972,8.02757,8.09313,7.42357,7.26087,7.21827,7.70602,7.76519,7.66619,7.63693,7.38922,7.62651,7.27148,7.64313,7.44485,7.57801,7.89266,7.929,7.86176,7.70763,7.62444,7.48165,7.47023,7.41477,7.64452,7.27623,7.39636,7.7229,7.29089,7.52844,7.93744,8.04659,8.08927,7.87697,8.20003,8.36859,8.74761,8.45975,8.42827,8.46514,8.35759,8.08762,7.98897,8.27978,8.48603,8.03846,8.26038,8.20909,8.5751,8.4717,8.49289,8.23144,7.84265,8.0575,8.42389,8.64389,8.83207,8.47474,8.7626,8.84133,8.34068,8.41805,8.69158,8.64305,8.40615,8.12724,8.1752,8.13682,8.12555,7.73674
5.08171,4.90287,4.80809,4.86778,4.52311,5.01366,4.89779,5.02081,5.16324,5.25454,5.30984,5.03002,4.94842,5.16787,5.4968,5.23301,4.94325,4.91836,4.9539,4.48002,4.47864,4.40126,4.41155,4.36652,4.7747,4.82567,5.46641,5.3445,5.31309,5.36005,5.02045,5.12432,4.70122,4.9259,5.052,4.6126,4.83227,4.89923,4.69271,4.38836,4.4314,4.39892,4.26722,4.59247,4.89211,4.54515,4.9,4.96851,5.20994,5.22707,5.10072,5.22775,5.36877,5.48626,5.34658,5.41602,5.32975,5.34369,5.43731,5.50144,4.99539,5.38437,5.20918,4.97256,5.0244,5.36846,5.27799,5.32008,5.42332,5.23357,5.39883,5.44005,4.91191,4.55533,4.77869,4.7667,5.00124,4.7663,4.75728,4.85627,5.07947,4.71856,4.75686,4.88571,5.05277,4.74372,4.9683,4.99644,4.61549,4.85396,4.58057,4.68756,4.48499,4.48843,4.36504,4.53349,4.72624,4.69419,5.02233,5.61905,5.71551,6.02835,6.09456,5.94637,5.67801,5.68926,5.8817,6.07201,6.1911,6.47888,6.50879,6.5808,6.6801,7.12649,7.19222,7.18616,6.96226,7.29421,7.12173,7.01574,7.23626,7.379,7.32543,7.21363,7.47183,7.5751,7.82128,8.08979,8.37244,7.99235,7.95247,8.09065,8.02022,7.42305,7.22181,7.14437,7.13337,7.51231,7.76815,7.6893,7.47174,7.4808,7.12068,7.21956,7.49696,7.47768,7.96328,7.97674,7.79768,7.85642,7.49505,7.71236,7.29438,7.57654,7.86842,7.51593,7.73642,7.64949,7.70992,7.526,7.77723,7.7039,7.94426,8.01883,8.26068,8.12528,8.33292,8.56042,8.60241,8.37478,8.42346,8.23629,8.17014,8.17442,8.5027,7.98544,8.18954,8.47559,8.67235,8.63334,8.82558,8.43886,8.26475,8.07419,8.50475,8.55468,8.87611,8.58443,8.79631,8.92029,8.36475,8.5472,8.53454,8.70597,8.60272,8.31271,8.19516,8.19693,8.20187,7.77009
4.80563,4.6078,4.58892,4.62856,4.73334,5.01852,5.00401,4.80031,4.71611,4.73389,5.01837,4.81905,5.03605,5.09934,5.21618,5.21485,5.29024,4.88293,5.04431,4.58355,4.39695,4.48543,4.25832,4.22723,4.71631,5.02949,5.42419,5.61533,5.56908,5.41701,5.49555,5.10995,4.96909,5.07533,4.82476,4.6651,4.61777,4.78243,4.77282,4.79985,4.41452,4.20773,4.07107,4.4091,4.42703,4.23745,4.47765,4.56114,4.87216,5.09521,5.13812,5.30009,5.26646,5.62324,5.53265,5.74103,5.28951,5.39439,5.5925,5.50686,5.10028,5.12057,5.39215,5.12822,5.3491,5.25955,5.49639,5.31952,5.63339,5.51661,5.47702,5.66989,5.41461,5.21229,5.08077,4.93352,5.00933,4.74095,4.84333,4.67744,4.62106,4.84381,4.56255,4.95388,5.10476,4.6489,4.60055,5.01837,4.8131,5.00181,4.60348,4.83716,4.91228,4.51981,4.45178,4.28372,4.45084,4.64981,4.61112,4.9406,5.19089,5.69358,5.77085,5.603,5.49507,5.5428,5.74723,5.68231,5.73681,6.31049,6.17733,6.09147,6.45007,6.51476,6.93817,7.03206,6.75382,6.81311,7.13762,7.10679,7.23606,7.57053,7.675,7.67516,7.38606,7.47245,7.93716,8.14636,7.993,8.03771,7.85858,8.20454,8.0146,7.89774,7.74987,7.47214,7.37961,7.63406,7.87379,8.01191,7.92834,7.70689,7.38905,7.01448,7.12903,7.22036,7.43548,7.8988,8.142,7.95458,8.0123,7.75979,7.676,7.52555,7.68662,7.70365,7.47322,7.32931,7.59082,7.37388,7.65261,7.52687,7.93388,8.09017,8.21197,8.23225,8.16722,8.4977,8.43909,8.25472,8.37785,8.36497,8.19097,8.4582,8.46174,8.07654,8.10335,8.37154,8.77812,8.64543,8.49576,8.75714,8.42593,8.40843,8.17852,8.16745,8.58044,8.36572,8.74922,8.8519,8.60459,8.84298,8.75318,8.72705,8.74539,8.27134,8.18058,7.89431,7.8478,7.54241
5.20279,4.89911,4.65578,4.75854,5.02677,5.24765,4.97521,4.62122,4.72502,4.54765,4.49415,4.89913,4.72647,5.05661,5.07121,5.27868,5.05569,4.82986,4.87532,4.637,4.77445,4.81362,4.78045,4.51431,4.3972,4.85573,5.03275,5.3622,5.45624,5.60368,5.67082,5.40036,5.24994,5.4243,4.90844,4.59367,4.82144,4.5506,4.82832,5.02488,4.97159,4.71885,4.66921,4.38637,4.33393,4.43596,4.2613,4.30776,4.63094,4.61099,4.89991,5.16685,5.09089,5.44153,5.28241,5.61373,5.71976,5.56968,5.55177,5.25251,5.12401,5.0209,5.43272,5.42347,5.19327,5.24319,5.47148,5.4256,5.81333,5.44818,5.17106,5.30018,5.43585,5.31326,4.99135,4.69065,4.82712,4.92871,4.9093,4.77625,4.50539,4.84053,4.51107,4.98318,5.12063,5.14619,4.8099,4.90113,4.85531,4.6978,4.80592,4.79927,5.12574,5.1154,4.96947,4.57037,4.71645,4.89949,4.7107,4.77592,4.85344,5.06735,5.44976,5.45769,5.60956,5.77793,5.79213,5.72861,5.88288,6.04998,6.10504,6.26474,6.13985,6.04676,6.3252,6.73101,6.94552,6.73473,6.65607,6.75623,7.1846,7.30905,7.60218,7.79066,7.52818,7.44845,7.57694,7.68374,7.91278,7.69164,7.99426,8.16249,8.37292,7.85468,7.69943,7.51879,7.40289,7.62817,7.85669,8.04821,8.25911,7.72939,7.48469,7.40611,6.98559,7.30807,7.37004,7.39499,7.80432,7.7589,8.15989,8.25209,7.95052,7.44637,7.57061,7.90856,7.49926,7.34064,7.26738,7.25831,7.15677,7.4704,7.99532,7.8718,7.8285,7.99463,8.09705,8.04926,8.19129,8.10398,8.1303,8.1783,8.04344,8.13038,8.48501,8.0231,8.27403,8.13857,8.29343,8.44619,8.64714,8.74567,8.36566,8.50057,8.57159,8.48888,8.68722,8.22977,8.4059,8.82132,8.95769,8.92658,8.84321,8.50289,8.45932,8.40477,8.09863,7.93049,8.04022,7.54887
4.85264,4.96219,4.50921,4.4978,4.6803,4.68053,5.0059,4.88561,4.91212,4.80105,4.44968,4.40033,4.53834,5.07844,4.92951,4.93845,4.94293,5.17173,4.90033,4.95668,5.13154,4.84911,4.63465,4.60378,4.59089,4.83584,5.05988,5.11437,5.41593,5.66949,5.53361,5.73797,5.57939,5.72973,5.3256,4.87979,4.70757,4.62078,4.72741,5.15422,4.92784,4.68719,4.93455,4.81565,4.44501,4.22714,4.47226,4.29152,4.70008,4.37538,4.53926,4.82381,4.99247,5.39277,5.30866,5.19589,5.29517,5.15675,5.21093,4.94696,5.12368,5.19066,5.38895,5.60939,5.69124,5.1816,5.36886,5.19164,5.74203,5.73721,5.54055,5.1495,5.40329,5.4792,5.12328,4.82841,4.83837,4.8113,4.64693,4.41245,4.26399,4.36756,4.32241,4.64188,4.60326,5.03507,4.76514,4.90461,4.94119,4.72373,5.04164,5.06419,4.88075,4.9892,5.08271,5.01493,4.85165,4.75402,4.47463,4.37369,4.8795,4.85222,5.23547,5.46925,5.36572,5.52727,5.9516,6.08051,5.81121,6.08138,6.17272,6.30964,6.3569,6.06376,6.03315,6.31553,6.75178,7.01578,6.72396,6.97865,7.14976,7.2383,7.71319,7.84862,7.44559,7.54841,7.70686,7.5718,7.52768,7.50808,7.46702,7.70899,8.13837,8.20299,7.93401,7.6185,7.32746,7.56804,7.42496,7.90284,8.29013,8.2141,7.63751,7.29232,7.06858,7.11194,7.50427,7.72624,7.66294,7.99879,8.0154,8.40976,8.05384,8.01139,7.70844,8.06384,7.53648,7.41255,7.17814,7.23036,7.22013,7.55918,7.55018,7.71437,7.85786,7.67487,7.88173,8.16531,7.98317,8.29934,8.26305,8.43157,8.48716,8.57439,8.7549,8.39051,8.45829,8.07541,8.25491,8.45221,8.72852,8.59711,8.37045,8.26058,8.54076,8.31759,8.70817,8.76782,8.36779,8.57301,8.5705,8.82211,9.13189,9.06347,8.73991,8.76139,8.43926,8.43717,8.07662,7.73663
4.92863,5.19991,4.81282,4.39263,4.2662,4.50014,4.96758,5.20556,4.83588,4.77965,4.81063,4.33215,4.30516,4.95925,4.83618,4.7811,5.13871,5.09753,4.7767,4.65379,4.66735,4.89826,4.94647,4.80631,4.97511,4.8205,4.81917,5.12003,5.34775,5.2682,5.48973,5.40009,5.66644,5.8161,5.36001,5.39257,4.94239,4.93274,4.68744,5.10628,5.10216,5.06488,5.01216,5.03108,4.93486,4.86213,4.76249,4.48697,4.4019,4.18817,4.5746,4.64377,4.64336,4.95371,5.15117,5.11026,5.27176,5.27805,5.20385,5.26993,5.02856,5.15966,5.29612,5.18198,5.53651,5.61948,5.70705,5.58352,5.63666,5.41333,5.62311,5.34934,5.50421,5.70513,5.40215,4.85762,4.92388,4.86876,5.02049,4.49305,4.16508,4.26711,4.28853,4.52809,4.80547,4.83679,5.01611,4.92759,4.76874,4.46109,4.51522,4.56488,4.47845,4.56348,4.94606,5.11516,4.9416,4.96996,4.49016,4.33335,4.745,4.84422,5.24169,5.55737,5.22983,5.44537,5.83862,5.66439,5.80841,6.12232,6.18525,6.21586,6.10279,6.33973,6.37693,6.56665,6.64661,6.53608,6.41693,6.64648,6.66856,6.76159,7.53721,7.7544,7.7035,7.41379,7.46832,7.40846,7.28797,7.53161,7.32306,7.613,7.80193,8.17773,7.97836,7.86981,7.64094,7.34219,7.13558,7.60444,7.70968,8.12135,7.62766,7.73338,7.19648,6.86138,7.02606,7.09941,7.41772,7.80547,7.75882,8.13304,8.21364,8.00658,7.65262,8.11081,7.6535,7.81966,7.25697,7.19203,7.07906,7.05061,7.34247,7.6239,7.5684,7.47527,7.83925,7.95584,7.80021,7.80956,8.11489,8.09629,8.02087,8.11067,8.38487,8.18115,8.25511,7.88369,8.34464,8.47956,8.52435,8.2782,8.4483,8.37021,8.19457,8.17131,8.59746,8.80246,8.57507,8.40077,8.68813,8.66953,8.87305,9.07407,8.74886,8.86919,8.81601,8.50817,8.48008,7.88189
5.04045,4.89618,5.11504,4.94645,4.32089,4.56611,5.01141,5.30189,4.84883,4.75815,5.02002,4.82435,4.57284,4.65081,4.78968,4.62671,4.65711,4.75695,4.91307,4.56078,4.69109,4.51895,4.82151,4.78702,5.12179,4.87251,4.87147,5.20877,5.09117,5.44736,5.2559,5.21871,5.68354,5.91206,5.77908,5.73192,5.53846,4.97837,4.96573,5.24939,5.42927,5.07332,4.7729,5.04814,4.78232,4.91039,4.72996,4.70643,4.74719,4.25413,4.65788,4.90658,4.55246,4.56877,4.81073,5.15795,5.4241,5.45105,5.15267,5.44037,5.15212,4.8944,4.82033,5.23567,5.30513,5.61587,5.42582,5.37191,5.67637,5.75428,5.44194,5.46808,5.66069,5.82981,5.55448,4.90964,5.03637,4.92181,5.13251,4.58716,4.12839,3.90321,3.81505,3.88527,4.47508,4.3605,4.91028,4.89513,4.61426,4.37295,4.33703,4.20243,4.47936,4.22342,4.38387,4.484,4.87087,4.66423,4.85505,4.80992,4.61997,4.55617,4.89119,5.19006,5.00506,5.14219,5.75886,5.9027,5.59409,5.59712,5.81656,6.09041,6.30081,6.25928,6.34921,6.3129,6.48185,6.74174,6.34014,6.37769,6.58679,6.64882,7.00108,7.29671,7.30906,7.57726,7.36915,7.1522,7.24241,7.29169,7.54867,7.43523,7.37324,7.54611,7.9254,8.04164,7.79929,7.75446,7.14966,7.08364,7.63426,8.00475,7.79921,7.57175,7.32107,6.98331,6.88709,7.07946,7.1715,7.46133,7.78037,7.97065,8.14106,8.30754,8.25264,8.0964,7.99602,7.85201,7.3046,7.05025,7.0973,6.8497,6.90195,7.05675,7.23587,7.23006,7.57992,7.59724,7.62039,7.57048,7.89416,7.76016,8.10409,8.26915,8.09143,8.32199,8.09422,8.06591,8.41833,8.68848,8.74317,8.24692,8.55931,8.64347,8.65138,8.33924,8.57039,8.57648,8.78051,8.56506,8.84242,8.47678,8.80175,8.71195,8.70718,8.97314,9.0523,8.90141,8.44219,7.97032
5.12277,5.02515,5.17676,5.17004,4.97263,4.62135,4.99938,5.3259,4.79575,4.6706,4.92039,5.16457,4.89209,4.63303,4.43128,4.70507,4.57857,4.86771,4.75543,4.74477,4.73389,4.63833,4.75062,4.88221,4.97309,5.07931,5.26789,4.97973,5.03927,5.05929,5.2075,5.24138,5.52204,5.58881,5.76853,5.97598,5.93799,5.37813,5.26663,5.46806,5.51779,5.40576,4.98161,5.06452,5.09514,5.18781,4.94383,5.07244,4.93954,4.49461,4.54573,4.43212,4.65263,4.33023,4.45109,4.54401,4.69069,4.97354,4.90357,5.00791,5.28209,4.99659,4.67531,4.88449,5.28387,5.49956,5.63854,5.35429,5.33081,5.81332,5.46121,5.41989,5.56241,5.4287,5.40332,5.37575,4.99859,4.77067,5.16596,5.10474,4.88539,4.55789,3.93532,3.61823,4.07481,3.95214,4.351,4.3853,4.74757,4.7041,4.58896,4.19756,4.46543,4.17611,4.02792,4.36989,4.71235,4.72212,4.75689,4.49064,4.42949,4.50542,4.64631,5.21214,5.34485,5.473,5.3557,5.3845,5.31317,5.46755,5.71385,5.87165,6.06008,6.19051,6.50903,6.12437,6.01959,6.56047,6.71042,6.32476,6.53945,6.50887,6.66942,6.98167,7.12782,7.05305,7.39152,7.07996,7.08979,6.9946,7.56969,7.45924,7.46368,7.67972,7.90828,8.13742,7.92062,7.63428,7.32566,7.15907,7.32864,7.63346,7.87647,7.83591,7.48498,7.20854,6.98934,6.96898,6.98956,7.30524,7.59267,7.70679,8.15869,7.94797,8.24351,8.19152,7.87497,7.66766,7.62755,7.11993,7.31848,7.14437,7.04538,6.85516,7.14233,7.21446,7.22306,7.38358,7.47959,7.5936,7.97344,7.66261,7.82442,8.25111,7.95525,7.84129,7.74637,7.80658,8.26307,8.74344,8.57902,8.34073,8.6141,8.42158,8.53894,8.27975,8.16333,8.43388,8.63648,8.61932,8.56429,8.49196,8.91497,8.99174,8.74605,9.0616,9.02759,9.01753,8.43613,8.3245
4.97366,4.72784,5.19031,4.91714,4.72669,4.56293,4.73301,4.81454,4.75479,4.44511,4.6651,4.70423,4.65852,4.589,4.40921,4.32703,4.42417,4.89419,4.89926,4.68084,4.55662,4.50467,4.86461,4.81168,4.66674,4.78232,4.91208,4.79741,4.68728,5.13569,5.13501,4.96918,5.16936,5.35407,5.52531,5.91772,5.96525,5.39766,5.5901,5.51966,5.38106,5.44149,5.25216,5.06636,5.30328,4.96675,4.91643,4.73544,4.65396,4.70277,4.69149,4.40628,4.60668,4.65036,4.70857,4.90199,4.68091,4.56253,4.9898,5.06589,5.02757,5.20322,5.18951,5.12189,5.18962,5.39087,5.65691,5.36181,5.62166,5.42372,5.73036,5.59281,5.71508,5.38642,5.55799,5.21176,4.80963,4.74983,5.06024,4.89376,5.13622,4.76982,4.39944,4.251,4.35002,3.99628,4.36574,4.34646,4.35712,4.48555,4.2583,4.05164,4.36683,4.40616,4.14948,4.22194,4.25507,4.23385,4.30941,4.33502,4.28159,4.52493,4.54624,4.91425,4.98597,5.08386,5.41582,5.31099,5.43696,5.66158,5.85439,5.63547,5.72169,6.22104,6.52786,6.59639,6.36214,6.42149,6.84322,6.53307,6.69687,6.60877,6.75366,7.00938,7.25635,7.38825,7.1002,6.79025,6.7523,6.94688,6.9957,7.33787,7.21759,7.15937,7.58558,7.62252,7.79891,7.53382,7.47898,7.60361,7.52248,7.55903,7.95809,7.66677,7.55637,7.55342,6.97949,7.02595,7.11052,7.01469,7.51281,7.56534,7.7074,7.7624,7.959,8.26676,7.8581,7.78049,7.75817,7.16516,7.18107,7.25529,6.94837,6.87015,6.96362,7.23585,7.04216,7.29183,7.2795,7.68887,7.64507,7.43317,7.56164,7.63406,7.54632,7.56349,7.69423,7.67037,8.0842,8.70559,8.85302,8.80091,8.75808,8.63293,8.74457,8.68697,8.69907,8.59675,8.67755,8.92989,8.87242,8.81918,8.97448,9.13297,9.02054,8.92053,9.02931,8.77937,8.52186,8.4559
5.06708,4.87662,5.15113,4.91629,5.028,4.77196,4.48919,4.72843,5.01037,4.72948,4.74936,4.83858,4.83919,4.86314,4.77645,4.59924,4.6309,4.47309,4.43215,4.57046,4.78034,4.51994,4.46439,4.4417,4.31546,4.41064,4.4738,4.84829,4.62202,5.16168,5.16278,5.27628,5.13687,5.48364,5.38739,5.68327,5.78288,5.38182,5.45515,5.3467,5.54403,5.37794,5.30903,5.39772,5.11575,4.80526,4.93158,4.87737,4.69182,4.58298,4.38441,4.28145,4.21468,4.557,4.70584,5.03363,5.13457,5.1264,5.28568,5.46038,5.10029,4.88709,4.95086,4.9984,4.91006,4.86832,5.12064,4.99241,5.54616,5.65009,5.97897,5.74635,5.80118,5.74959,5.93281,5.3708,5.09312,5.07575,5.15839,4.91117,4.93985,4.97239,4.85332,4.29151,4.11494,4.25211,4.43202,4.57157,4.21338,4.46548,4.50942,4.28525,4.06593,4.03212,4.17703,4.35363,4.56954,4.57085,4.58905,4.64604,4.19513,4.56357,4.57987,4.86148,4.90382,5.10808,5.4638,5.4977,5.62907,5.68934,5.93245,6.06968,5.89415,6.15874,6.53317,6.68352,6.48102,6.2806,6.79586,6.60292,6.65092,6.75975,6.64912,6.60077,6.81681,7.30365,7.08312,6.97851,7.13024,7.0485,6.74207,6.98384,6.89565,6.95611,7.44808,7.79299,7.55353,7.75383,7.79353,7.44998,7.21045,7.47685,7.92585,7.64297,7.70846,7.57629,7.18393,6.95078,6.77215,6.64191,6.85021,7.12194,7.5465,7.58394,8.00137,8.24066,7.81844,7.72998,7.81338,7.55875,7.51892,7.60322,7.35057,7.11366,7.02588,7.40563,7.11358,6.9075,7.1118,7.36655,7.33574,7.57711,7.38507,7.57604,7.49147,7.63838,7.70174,7.79101,8.19903,8.51104,8.90621,9.02759,9.17859,8.95223,8.88417,8.71428,8.89329,8.87042,8.86328,8.70424,8.80193,8.76829,8.78333,8.99005,8.75307,8.69544,9.0534,9.00125,8.77845,8.902
4.85015,4.7148,4.92756,5.06463,5.11131,4.91519,4.88239,4.6534,5.07776,4.71256,4.45261,4.75972,4.77598,5.06386,5.05236,4.98252,4.99575,4.59147,4.27127,4.51648,4.65811,4.52749,4.19716,4.05614,3.96711,4.43073,4.36138,4.85845,4.89109,5.29539,5.45967,5.44036,5.47733,5.35923,5.55389,5.44104,5.58817,5.44294,5.2876,5.12163,5.62985,5.36271,5.11288,5.08625,5.18823,4.9781,4.86337,4.68957,4.82188,4.97893,4.95383,4.64399,4.20761,4.40487,4.51621,4.68584,5.1703,5.19481,5.35598,5.16184,4.93606,4.79014,4.92449,4.85924,4.95532,4.78322,4.82159,5.15218,5.22523,5.56032,5.93573,5.73666,5.60367,5.97155,6.03978,5.61693,5.09048,4.86447,5.101,4.72289,4.63065,4.9996,5.08169,4.61597,4.59568,4.44212,4.61824,4.64565,4.18626,4.40035,4.46463,4.47378,4.02223,4.13299,3.94596,4.2729,4.26016,4.42264,4.59919,4.46754,4.19095,4.30249,4.39517,4.72729,4.79307,5.08732,5.30274,5.23833,5.21812,5.52096,5.73432,5.81399,5.79079,5.72812,6.26319,6.73116,6.35409,6.04368,6.5142,6.7616,6.79296,7.07005,6.67511,6.41887,6.54113,6.94565,7.15032,7.04275,7.03382,7.10691,6.87402,6.73668,6.93699,6.94217,6.97783,7.51315,7.66012,7.74262,7.49439,7.68743,7.21561,7.60304,7.99215,7.67953,7.5116,7.54328,7.32181,7.18464,6.8718,6.58854,6.5823,7.03049,7.0958,7.46766,7.75295,8.18097,7.94844,8.12441,8.00076,7.6397,7.5865,7.33738,7.12289,7.15822,7.29411,7.2743,6.97466,6.73979,6.92111,7.18403,6.97459,7.20579,7.38366,7.36396,7.36102,7.72675,7.57586,7.94954,8.20523,8.19063,8.4867,8.76581,8.74835,9.10841,9.23508,9.0586,8.88272,8.9682,8.95881,8.57289,8.56931,8.67634,8.864,8.97747,9.07273,9.02936,9.03246,9.27074,8.89594,8.66112
4.93821,5.11018,5.04808,4.92741,4.81466,4.67545,4.98537,4.88714,4.83476,4.84229,4.59953,4.83589,4.77294,4.91116,4.95038,4.7994,4.72622,4.87358,4.74381,4.83888,4.60183,4.47705,4.40077,4.33632,4.44521,4.26097,4.0203,4.35979,4.57318,4.93937,5.20698,5.09342,5.48847,5.69521,5.65854,5.84177,5.54224,5.54216,5.53692,5.24292,5.56803,5.18612,4.96636,4.77818,5.08407,4.91931,5.04225,4.59398,4.67612,4.61335,4.63973,4.35288,4.18492,4.57072,4.81204,4.98999,4.97062,5.31895,5.14,4.87305,4.76917,5.06947,5.25533,5.18323,4.97088,5.05047,5.06809,5.29657,5.45256,5.51096,5.98648,5.62191,5.4237,5.88982,6.06371,6.11583,5.35646,5.35825,5.30411,5.18985,4.84305,4.80672,4.69982,4.8282,4.53322,4.28144,4.46259,4.41959,4.00305,3.93344,4.16419,4.36084,3.95346,4.05317,4.28023,4.26175,4.10936,4.05088,4.47733,4.49363,4.13058,4.13267,4.01824,4.58428,4.41945,4.57534,4.93391,5.22015,5.16368,5.10868,5.71356,6.00847,5.79166,5.67289,5.86056,6.50115,6.53083,6.31746,6.42554,6.82509,6.75213,7.18871,7.02114,6.91107,6.64925,6.80624,6.73394,7.0387,6.91254,7.18959,6.78535,6.94649,6.66284,6.70985,6.55916,7.32423,7.33659,7.80334,7.53484,7.31929,7.44024,7.46514,7.78229,7.86392,7.63083,7.8831,7.51586,7.52713,7.10288,7.02613,6.73159,7.06644,7.1846,7.31961,7.41029,7.8534,7.72538,7.90954,7.70438,7.95786,7.73861,7.35707,7.45798,7.10468,7.06405,7.02062,6.95368,6.83207,6.68476,7.10491,7.08267,6.94142,7.30311,7.4464,7.35337,7.49672,7.38064,7.49054,7.7098,7.92191,8.46614,8.63164,8.74671,8.88746,9.00351,8.91348,9.07892,8.87445,9.1356,8.89678,8.80518,8.9507,8.65533,8.72241,9.10832,9.12956,8.91035,8.96627,9.21317,8.99483
5.13727,5.4059,5.0253,4.76057,4.69069,4.78797,4.62088,4.67756,4.88674,4.63423,4.3572,4.30929,4.76731,4.71364,5.03061,4.88063,4.75434,4.57952,4.8811,5.06911,5.08072,4.91902,4.85767,4.52674,4.52728,4.57164,4.08495,3.93101,4.40659,4.7342,4.92003,5.0402,5.08696,5.6096,5.75382,5.65269,5.69019,5.84403,5.41617,5.3801,5.39394,5.21751,5.00732,4.91188,4.94672,5.22851,5.39471,4.90987,4.66259,4.41072,4.7455,4.83115,4.32083,4.45383,4.33941,4.9209,4.83541,5.29705,5.30963,5.09919,5.10717,5.2101,5.5312,5.39109,5.22928,5.19693,5.12731,5.37529,5.37628,5.44144,5.81529,5.89997,5.57609,5.47558,5.60845,5.92213,5.90447,5.58881,5.63904,5.34097,4.97497,5.15222,4.98046,5.07163,4.74095,4.53762,4.29184,4.08666,3.95744,4.07846,4.0428,4.3152,3.93551,4.01807,4.32935,4.17693,4.17004,4.29275,4.37694,4.21177,4.16805,3.88038,3.93675,4.27075,4.12235,4.22534,4.7916,5.05883,5.21184,4.94608,5.53702,5.78101,5.63599,5.91705,5.74199,6.37772,6.37782,6.37227,6.63644,6.9074,6.87877,6.75005,6.93455,7.04454,7.07507,6.86909,6.79856,7.11538,6.91905,7.01117,6.72531,6.84456,6.76634,6.85293,6.52857,6.98325,7.1895,7.34967,7.21485,7.18654,7.38758,7.48346,7.36014,7.87297,7.51716,7.94756,7.88552,7.58829,7.40629,7.45312,7.12266,6.80047,6.83516,6.94675,6.93506,7.42497,7.38681,7.67292,7.55249,7.74262,7.94349,7.64493,7.43041,7.36085,7.20373,7.40154,7.33479,6.79997,6.99159,7.18842,7.20573,7.1482,7.27525,7.21365,7.20221,7.05098,7.28776,7.12143,7.37032,7.81497,8.42571,8.50207,8.92145,9.1837,9.16767,8.82699,9.22022,9.00861,8.85283,9.13653,9.1004,8.90557,9.01946,9.14247,9.33431,9.08513,8.76785,8.72394,9.21833,8.98585
4.97111,5.39474,5.45265,5.27141,5.13644,4.95641,4.81581,4.92537,5.13166,5.02317,4.68596,4.58219,4.40245,4.53809,4.96559,4.94379,4.73382,4.90757,4.68501,4.58322,4.97903,5.06682,4.72102,4.37221,4.53684,4.80645,4.29848,4.07923,4.33361,4.58529,5.00007,5.00865,4.83763,5.4589,5.88822,5.85622,5.66776,5.62981,5.77529,5.40828,5.25086,5.0717,5.05512,5.17858,5.01321,5.03545,5.20759,5.26288,4.98107,4.53719,4.40628,4.57746,4.60757,4.28805,4.27248,4.32728,4.85628,4.99721,5.01569,5.2539,5.40065,5.31275,5.64462,5.77381,5.78777,5.45609,5.49183,5.13921,5.0838,5.15725,5.49485,5.81067,5.83017,5.87102,5.85293,5.59386,5.91997,5.8853,6.02875,5.79321,5.53119,5.21185,4.90078,4.73918,4.87609,4.65862,4.61113,4.14096,3.88456,3.91009,3.70043,3.9577,4.21508,3.95281,4.00136,4.37739,4.32447,4.24142,4.04568,4.35782,4.28152,4.07683,3.92701,4.19139,4.30776,4.41609,4.77576,5.0065,5.32128,5.32946,5.22729,5.75535,5.43727,5.70349,5.54415,5.8181,6.19815,6.23634,6.55022,6.82733,6.5724,6.4199,6.95336,6.76966,6.63513,6.52834,6.58886,7.00062,6.82986,6.62729,6.96774,7.08715,6.80554,6.95754,6.76156,6.67101,6.75786,7.32741,7.38575,7.52805,7.35311,7.58479,7.22233,7.2829,7.57254,8.05405,7.80831,7.91665,7.55262,7.3849,7.38662,6.97322,6.94999,6.69173,7.09007,7.41534,7.43803,7.43798,7.35791,7.25547,7.56043,7.44685,7.17602,7.37028,7.46619,7.51321,7.17689,7.14715,7.13794,7.04927,6.8926,6.7821,6.91624,7.28131,7.47678,7.35492,7.59897,7.23276,7.45912,7.49844,7.91824,8.31152,8.4329,8.83736,8.82157,8.97962,9.30039,8.99752,8.89247,8.82807,8.67706,8.91047,8.68845,8.81501,9.03189,8.98079,8.65595,8.75448,9.02719,8.7854
4.96657,5.43055,5.52715,5.66061,5.15331,5.18777,5.17881,5.149,5.03026,5.2373,4.70873,4.56229,4.57113,4.76682,4.81092,4.91158,4.84832,5.06675,5.05556,4.80864,4.75235,4.88966,4.90762,4.80912,4.45016,4.87405,4.33563,3.92339,4.27246,4.68562,4.73841,4.97125,5.03608,5.32003,5.59488,5.93211,6.09174,5.96184,5.8151,5.33216,5.03937,4.75924,4.80414,4.87886,5.06581,4.98443,4.97151,4.93593,5.15451,4.65967,4.71316,4.6034,4.64922,4.29311,4.42351,4.07703,4.52755,4.59439,5.07504,5.07249,5.17606,5.12419,5.33311,5.45325,5.88462,5.47941,5.77787,5.17056,5.02295,4.89744,4.91609,5.65212,5.99278,5.9316,5.62032,5.36931,5.77126,5.71907,6.03403,5.64424,5.8298,5.4182,5.12326,4.8342,4.82618,4.57947,4.55957,4.19186,3.95268,4.0239,3.68344,4.03634,4.16311,4.03327,4.02756,4.41548,4.30115,4.15918,4.29017,4.0646,4.10297,4.02816,4.16052,3.92734,4.26349,4.07884,4.32018,4.67813,4.95894,4.94703,4.96577,5.59985,5.56143,5.64121,5.85864,5.64515,5.62182,5.92192,6.02929,6.51699,6.79102,6.84202,6.62804,6.79401,6.84116,6.52172,6.53695,6.65345,6.56191,6.88886,7.10704,7.1899,7.22772,6.90908,6.91383,6.97053,6.74699,6.97557,7.18329,7.45046,7.17275,7.64341,7.61238,7.28336,7.21928,7.91969,7.83364,7.61246,7.78758,7.86784,7.69696,7.28241,7.32931,7.08527,6.91234,7.38938,7.63562,7.62148,7.29369,7.44663,7.4192,7.32639,7.52383,7.4509,7.235,7.2757,6.98384,6.78948,6.90756,7.03954,6.92408,6.78057,6.70517,6.85637,6.9499,7.34742,7.37095,7.50588,7.26072,7.21342,7.79822,8.327,8.62492,8.7261,8.52013,8.60245,8.78406,9.0194,8.86469,9.09318,8.93539,8.76666,8.63369,8.43322,8.69554,8.80251,8.54727,8.47955,8.70155,8.8704
5.28288,5.37511,5.68126,5.64586,5.23356,5.01204,5.1496,5.1304,5.03734,5.3179,5.04078,4.98696,5.00262,4.822,4.75688,4.83663,4.86389,4.68784,4.64963,4.88062,4.55724,4.86936,4.70265,4.54771,4.35641,4.39918,4.08231,4.25873,4.35102,4.44718,4.84731,4.95066,5.0186,5.07095,5.26982,5.78121,5.8115,5.63785,5.44403,5.42021,5.07985,4.81222,4.55702,4.72589,4.80672,5.02745,4.97309,4.77567,4.84057,4.79069,5.0171,4.54742,4.32161,4.08878,4.48664,4.03686,4.19062,4.27367,4.57599,4.66466,4.72004,4.75147,5.29928,5.35928,5.3233,5.42067,5.45723,5.55295,5.50705,5.21768,5.20877,5.67758,6.05202,5.72982,5.79931,5.29555,5.50496,5.51171,5.99214,5.76684,5.82374,5.68375,5.55125,5.0795,4.87834,4.7329,4.53339,4.26999,3.89039,4.19766,4.0527,4.31149,4.29432,4.04185,3.86722,4.40426,4.3948,4.09999,4.04359,3.90087,3.98828,3.97998,4.00542,4.22155,4.03789,4.25575,4.48633,4.73503,4.91554,5.08728,5.06464,5.41669,5.44349,5.41111,5.33673,5.73375,5.54263,5.86273,6.08405,6.01622,6.3807,6.84556,6.58194,6.5056,6.44978,6.3856,6.57408,6.61776,6.31922,6.90175,7.04232,6.82116,7.05316,7.02536,6.70303,7.08939,6.6843,7.05948,7.38677,7.37476,7.00066,7.44587,7.64335,7.52208,7.36847,7.62115,7.70135,7.94814,7.8724,7.93031,8.06727,7.64072,7.26871,7.16666,7.26548,7.03411,7.2832,7.21117,7.49648,7.73717,7.81753,7.47438,7.36531,7.56912,7.30334,7.54524,7.09956,6.97148,6.91861,7.09321,6.93875,6.58077,6.85038,6.62851,7.01337,7.43753,7.50636,7.40421,7.46886,7.49351,7.78729,8.09792,8.60601,8.39985,8.63431,8.65681,8.66449,8.78028,8.55053,8.9251,9.10348,9.17087,8.62801,8.31113,8.72306,8.51019,8.77821,8.82511,8.85345,8.84775
5.1966,5.18995,5.17763,5.41282,5.44479,5.25838,4.93042,4.80466,5.02653,5.2615,5.29314,5.25336,5.11223,4.71505,4.97206,4.9585,4.63565,4.44817,4.4385,4.8411,4.71159,4.76734,4.92268,4.54774,4.56442,4.54914,4.11121,3.9949,4.45903,4.69639,5.03975,4.91718,5.08125,4.8726,5.02109,5.46538,5.5113,5.35422,5.4307,5.42751,5.55033,5.13897,4.81895,4.51886,4.91376,5.16564,5.24215,5.16805,5.25469,5.01124,4.81682,4.5534,4.32997,4.05204,4.26808,4.04079,4.32368,4.35477,4.60065,4.48678,4.81544,4.51054,5.17062,5.23947,5.27319,5.53687,5.39762,5.19288,5.52121,5.64492,5.22955,5.19321,5.40537,5.52845,5.58916,5.59053,5.71217,5.46228,5.95048,5.6717,5.8653,5.99377,5.47295,5.54941,5.12784,4.92997,4.79828,4.27775,3.84073,4.09471,4.34029,4.5803,4.62524,4.24571,4.00091,4.07662,4.44821,4.38409,4.04454,3.89943,3.9255,3.82669,4.1538,4.39011,4.17274,4.33274,4.52954,4.38201,4.90331,4.83325,4.8727,5.18314,5.10824,5.33401,5.44693,5.44642,5.2742,5.78323,5.67099,6.11982,6.00988,6.3638,6.25585,6.13989,6.00276,6.15892,6.42881,6.54613,6.13413,6.40979,6.69625,6.85679,6.99464,7.06235,7.09777,7.25237,7.10094,6.8269,7.4002,7.21215,7.27514,7.19186,7.7048,7.34155,7.12365,7.0851,7.59164,7.76208,7.61059,7.70755,8.16485,7.76561,7.43068,7.23105,7.14905,6.83137,7.09682,7.40425,7.53554,7.47167,7.91047,7.58283,7.75224,7.75308,7.57938,7.46047,7.53487,7.43837,7.11345,6.93463,7.21394,6.62184,6.93928,6.85721,7.05583,7.32257,7.69246,7.38917,7.22248,7.56183,7.91781,8.01105,8.39712,8.60192,8.33856,8.66001,8.41929,8.45012,8.70844,8.54121,9.11588,9.34049,8.81318,8.73034,8.66497,8.58918,8.90797,8.79781,8.56082,8.63064
4.89271,5.25622,5.35516,5.59915,5.77641,5.46353,5.17822,4.9217,4.96022,5.15805,5.14128,5.10149,5.18588,4.87161,4.90682,4.8065,4.63196,4.2647,4.09105,4.48576,4.61179,4.46256,4.87762,4.88934,4.8844,4.76275,4.25956,4.08752,4.27275,4.25125,4.73847,4.87063,5.05574,5.0418,4.83631,5.11944,5.32623,5.05966,5.25585,5.45543,5.29576,4.95475,4.75022,4.85421,4.75784,5.05664,4.9798,4.93433,5.36803,5.17431,4.73212,4.60492,4.2113,4.24256,4.53773,4.2964,4.37554,4.36975,4.32601,4.47359,4.43514,4.24142,4.95427,5.38983,5.33517,5.20432,5.53379,5.30612,5.25198,5.36901,5.25622,5.30877,5.52653,5.35932,5.64309,5.46677,5.38299,5.53555,5.46772,5.37197,5.52221,5.84385,5.7004,5.68067,5.30101,5.09514,4.68379,4.24448,4.13104,4.0932,4.28442,4.29261,4.62023,4.53152,4.05523,4.02212,4.12602,4.47674,4.1329,3.94067,3.67058,3.50201,3.97462,4.37212,4.38535,4.23372,4.40508,4.31464,4.87466,5.0935,5.07862,5.02225,5.07113,5.23693,5.46357,5.25296,5.05946,5.65451,5.49427,6.09002,5.90326,6.05379,5.91703,5.95826,5.86078,5.82626,5.91011,6.28873,6.3678,6.11362,6.35382,6.52831,7.04123,6.84302,6.69544,6.80241,6.69759,6.62547,6.86913,7.25164,7.12744,6.92305,7.33281,7.61884,7.67027,7.08351,7.42998,7.41011,7.49402,7.33048,7.65509,7.47499,7.7369,7.35121,7.21737,7.06517,6.97288,7.46736,7.55705,7.55186,7.50809,7.81298,7.75397,7.64266,7.65423,7.46417,7.37893,7.25471,7.35942,7.01818,7.11072,6.89648,6.93118,6.65137,7.02273,7.18955,7.22223,7.12147,7.00258,7.35804,7.70731,8.00504,8.40746,8.7283,8.79917,8.54949,8.514,8.19912,8.56085,8.35928,8.89373,8.98599,8.75089,8.96514,8.66448,8.55574,8.47862,8.90807,8.98206,9.08207
5.19006,5.06815,5.25972,5.23792,5.69659,5.83012,5.24191,5.29879,4.95167,5.1459,5.39617,5.21966,5.14286,5.05223,5.11051,5.01289,4.53083,4.57597,4.04964,4.14524,4.2655,4.60167,5.01828,4.95018,4.72326,4.97966,4.45298,4.29454,4.38724,4.48581,4.77789,5.00342,5.24094,4.9707,4.92655,5.00681,5.23547,5.20222,5.33622,5.63225,5.42046,4.99756,4.65989,5.01953,4.83533,4.97269,5.1795,4.97198,5.18303,5.11746,4.74462,4.96445,4.34657,4.01406,4.49661,4.38877,4.17203,4.51814,4.52011,4.60621,4.59716,4.27824,4.90782,5.01679,5.3614,5.40425,5.28716,5.51701,5.09031,5.48256,5.40302,5.59397,5.39431,5.15814,5.37294,5.30633,5.19328,5.37011,5.17221,5.06334,5.36533,5.70413,5.52955,5.76524,5.37383,5.53438,5.098,4.94873,4.2792,3.94028,4.30325,4.52157,4.53956,4.35183,4.02558,3.88928,3.82742,3.93628,3.8028,3.67238,3.47298,3.48246,3.72808,3.97125,4.32846,4.55755,4.62114,4.53369,4.62809,4.6616,4.86599,4.84547,4.86582,4.77767,5.17209,5.51058,5.33995,5.2094,5.07253,5.33173,5.72421,5.84981,5.58349,5.61278,5.99875,5.75298,5.81792,5.85416,6.02377,6.01972,6.21839,6.36019,6.44985,6.46548,6.54479,6.89406,6.78015,6.41725,6.61108,7.09515,7.17856,6.91457,7.3882,7.26436,7.22325,6.89994,7.45485,7.55521,7.56692,7.60933,7.83935,7.63368,7.96799,7.40356,7.51311,7.21736,6.82276,7.34836,7.45465,7.37253,7.26115,7.7605,7.7295,7.52265,7.44204,7.18978,7.23311,7.43288,7.39901,7.02637,6.7888,6.69236,6.52909,6.29661,6.6127,7.13773,7.37665,7.515,7.26976,7.09571,7.33481,7.47958,8.03524,8.66374,8.7231,8.64853,8.69749,8.16436,8.56411,8.58206,8.63041,8.71937,8.5855,8.95663,8.5293,8.56316,8.38158,8.47985,8.67206,8.88771
4.91171,5.02335,5.14404,5.41528,5.63248,5.81111,5.79316,5.39412,5.14399,5.1486,5.46971,5.22283,4.97496,4.86744,4.85954,4.80088,4.95747,4.56858,4.1162,4.22618,4.47139,4.80879,4.77312,4.84917,4.60528,4.82514,4.69511,4.76837,4.62266,4.64479,4.56932,4.60511,4.82812,4.7565,5.05793,5.27594,5.40987,5.07799,5.11581,5.22244,5.48553,5.31655,4.8643,5.19262,4.95936,5.02158,4.86922,4.62233,5.19071,5.28316,4.98981,4.7801,4.33904,4.4385,4.23117,4.2986,4.20653,4.44277,4.71131,4.80868,4.77706,4.3731,4.47432,5.0395,5.29912,5.28274,5.47204,5.25908,5.45929,5.4837,5.46549,5.48439,5.4242,5.10906,5.39697,5.47394,5.44913,5.27901,5.30289,4.9206,5.38559,5.70288,5.47634,5.48473,5.54874,5.57851,5.41146,5.41311,4.75878,4.28116,4.49746,4.25946,4.58521,4.42458,4.18348,4.20225,4.10167,4.01779,3.66522,3.4434,3.63404,3.37566,3.37966,3.66824,3.85046,4.30732,4.18069,4.12011,4.65615,4.73173,4.94851,4.70121,4.65189,4.77505,4.7159,5.03238,5.04849,4.90737,5.11079,5.29459,5.3958,5.44149,5.67321,5.7431,6.1061,5.89523,5.79046,5.77842,5.89141,6.17307,6.00986,6.31446,6.2306,6.39961,6.42769,6.82686,7.1026,6.83818,6.98751,6.90035,7.27046,6.86086,7.11382,7.1829,6.90887,6.73213,6.89389,7.33503,7.52585,7.43266,7.83271,7.9898,8.05496,7.63811,7.69187,7.44364,6.89486,7.25478,7.42729,7.58351,7.49457,7.6386,7.61623,7.69235,7.66845,7.72123,7.20413,7.04409,7.0265,7.20649,6.76233,6.52346,6.30664,6.2949,6.39992,6.57807,6.79856,7.26456,7.50218,7.25789,7.36592,7.50317,7.5047,8.14538,8.5817,8.50115,8.53217,8.61473,8.88462,8.75342,8.73839,8.48922,8.52799,8.90772,8.57559,8.31148,8.41414,8.15783,8.14245,8.77329
4.76638,4.75616,4.84101,5.03935,5.25099,5.37187,5.2964,5.3942,5.31816,5.46065,5.32162,5.2278,4.9866,4.93147,5.05631,4.72071,4.6607,4.67366,4.21978,4.33683,4.24214,4.66024,4.95196,4.91749,5.00529,5.01533,5.03675,4.72925,4.87288,4.59308,4.35308,4.54193,4.58807,4.42531,4.73944,5.00222,5.14895,5.16288,5.38917,5.25541,5.15836,5.00635,5.09263,4.86015,4.81711,5.10089,5.1944,4.91708,4.83464,5.28473,5.24466,4.7855,4.45809,4.45189,4.53457,4.35299,4.14955,4.20559,4.4629,4.70552,4.95695,4.41203,4.3272,4.75483,5.10185,5.19429,5.10732,5.16012,5.05617,5.55185,5.73552,5.72759,5.79051,5.50103,5.29076,5.15474,5.32229,5.31126,5.00723,4.98133,5.44487,5.78686,5.68651,5.3608,5.47397,5.7649,5.32828,5.53633,4.95204,4.4958,4.74612,4.32152,4.62389,4.59173,4.43885,4.17581,4.3791,4.25722,4.01471,3.86876,3.89271,3.88783,3.62245,3.50867,3.76308,3.88081,3.94992,4.03278,4.27741,4.45722,4.74473,4.52961,4.37751,4.30666,4.42596,4.55451,4.87552,5.13614,5.02063,5.1681,5.21149,5.22096,5.57861,5.37172,5.91328,6.02444,6.0717,6.04507,6.03269,6.18345,5.91594,6.16671,6.48982,6.6542,6.42504,6.76859,6.75953,6.62464,7.04409,6.99665,7.03762,7.16673,7.22137,7.1017,6.81521,7.07261,6.92185,7.23248,7.43087,7.29814,7.29049,7.42148,7.85233,7.47353,7.73413,7.79831,7.15765,6.9502,7.30706,7.35818,7.66572,7.68073,7.87288,7.99346,8.02806,7.58899,7.25474,7.34961,6.90686,7.30746,7.10143,6.51485,6.53971,6.53939,6.60901,6.59877,6.55735,6.76779,7.0604,7.30309,7.54876,7.61233,7.36485,7.8906,7.95863,7.98545,8.06165,8.48854,8.92815,8.68084,8.65501,8.54657,8.63403,8.81105,8.90647,8.38381,8.26682,8.1178,8.27212,8.36422
5.04205,4.75468,4.53302,4.96533,5.04503,5.04317,5.01349,5.23644,4.98396,5.34263,5.05994,5.11265,5.17902,5.34738,5.4093,5.13623,5.13702,5.18374,4.78243,4.84732,4.59815,4.35461,4.56224,4.99913,4.74025,4.67182,5.14443,4.9615,5.2042,4.6039,4.68043,4.87308,4.92514,4.68749,4.87327,5.05921,5.03527,5.33868,5.1073,5.3868,5.37682,5.21344,5.32859,5.13255,5.24469,5.19554,5.03355,5.23179,4.97046,5.40382,5.23839,5.17107,5.03776,4.77758,4.44846,4.69918,4.24632,4.24513,4.30885,4.59017,4.90695,4.51666,4.56668,4.62915,5.0748,5.38608,5.01513,4.9059,5.23068,5.43639,5.47745,5.56037,5.55417,5.30038,5.53767,5.17912,5.25444,5.11615,5.25119,5.22808,5.21616,5.3804,5.61674,5.37882,5.59362,5.40576,5.13209,5.58496,5.10542,4.71679,4.97827,4.51593,4.54177,4.5456,4.74078,4.528,4.56384,4.2307,3.91329,3.91325,4.11998,3.9111,3.79648,3.4302,3.55105,3.53434,3.81066,3.68568,4.19454,4.43661,4.48085,4.28607,4.58939,4.17863,4.58245,4.32936,4.34695,4.48301,4.5705,4.8958,5.11658,5.42156,5.22074,5.03055,5.44451,5.90154,6.02798,5.7888,5.71589,6.06172,5.99757,5.83898,6.366,6.59477,6.60993,6.68749,6.51661,6.5162,6.95427,6.96254,6.88482,7.24877,6.97271,7.1397,7.18208,7.02943,6.70284,6.95547,7.0683,6.96224,7.31166,7.63985,7.69642,7.53295,7.54399,7.65512,7.65014,7.20044,7.23218,7.25984,7.24829,7.60866,7.56395,7.95484,7.83229,7.9707,7.63479,7.71442,7.11033,7.45722,7.17402,7.03992,6.85038,6.84031,6.90837,6.6097,6.32317,6.27154,6.41124,7.09899,7.17661,7.24941,7.49645,7.55455,7.50466,7.58622,7.99811,8.15891,8.52219,8.40747,8.45959,8.46711,8.27587,8.6358,8.8233,8.55016,8.50433,8.11177,8.00218,7.92243
4.94062,4.97528,4.46434,4.95936,4.96321,4.72932,5.05874,5.08594,4.97956,5.31325,5.10442,4.91846,5.00862,5.33868,5.41483,5.03256,5.0382,5.25192,4.8727,4.64847,4.53014,4.33787,4.33402,4.49777,4.79231,4.68792,4.99706,5.0653,5.30121,4.8502,4.52041,4.40208,4.63412,4.60608,4.58698,4.92642,5.09478,5.38196,5.40897,5.29793,5.20384,5.20464,5.00759,4.80624,5.07261,4.91016,4.70928,5.10149,4.79461,5.29137,5.06961,5.3166,5.0458,4.93496,4.57351,4.39196,4.20863,4.17395,4.48465,4.38073,4.82828,4.79553,4.72947,4.45023,4.61354,5.1669,5.06518,4.91855,5.29604,5.59703,5.52294,5.335,5.26221,5.05814,5.38032,5.43912,5.38153,5.17852,5.11962,5.077,4.8613,5.18424,5.51175,5.36035,5.32097,5.2636,5.00174,5.46129,5.36285,4.98429,5.07884,4.59092,4.77227,4.42166,4.6156,4.54059,4.66335,4.39134,4.15168,3.7516,4.18599,4.3301,3.88714,3.92081,3.81387,3.78194,3.71259,3.90673,4.20737,4.13244,4.21021,4.5193,4.80486,4.62985,4.88204,4.66897,4.71436,4.31629,4.40519,4.74738,4.70154,5.21679,4.9959,5.23846,5.30229,5.76359,5.70059,5.5992,5.80117,5.79973,6.11974,6.02112,6.28496,6.14165,6.6721,6.57117,6.24695,6.28575,6.83493,6.60541,6.64479,7.06617,7.0896,7.15782,7.21001,7.10992,6.91059,6.85049,7.07252,7.27562,7.06659,7.22069,7.73853,7.34614,7.48119,7.70031,7.8444,7.5312,7.38147,7.34396,7.00729,7.25174,7.42097,7.94631,7.68742,8.09231,7.78888,7.98855,7.25789,7.45913,7.37941,7.46404,7.29197,7.35685,7.34757,7.15005,6.71922,6.50093,6.28237,6.68133,7.12639,7.40283,7.21597,7.18325,7.46233,7.54046,7.59556,7.58333,8.01471,8.18674,8.32077,8.11816,8.03344,8.33141,8.8403,8.72394,8.87855,8.41639,8.08162,7.77326
5.07634,4.84323,4.93969,5.02794,5.05163,4.65292,4.60682,4.61002,5.00586,5.08942,5.10963,5.07402,5.17039,5.49836,5.39773,5.45195,5.26507,5.55521,5.51032,5.1766,5.08832,4.88465,4.65809,4.46805,4.36403,4.44986,4.9329,4.79963,4.86506,4.56576,4.7258,4.36289,4.26933,4.72082,4.5427,4.96702,5.17029,5.32803,5.50506,5.30073,5.36437,5.23154,5.08346,5.13814,5.33099,4.85103,4.97306,4.87437,4.92576,4.90058,5.03624,5.39061,5.32602,5.11654,4.88047,4.37243,4.359,4.13745,4.57095,4.28697,4.43928,4.51374,4.52981,4.7788,4.9448,5.05668,5.34399,5.02387,4.95138,4.99489,5.11689,5.50654,5.22133,4.99421,4.95469,5.39304,5.17916,5.37929,5.23088,5.3095,5.31123,5.46308,5.55508,5.22217,5.4871,5.28274,5.35471,5.11969,5.31357,5.04536,5.22913,4.83488,4.99901,4.9841,4.97863,4.852,4.95576,4.48005,4.05865,3.61593,3.74108,4.04659,3.72441,4.04149,4.07915,3.63968,3.61878,3.58088,3.96234,3.79291,3.93823,4.49344,4.47954,4.27938,4.65795,4.37563,4.6022,4.42442,4.44379,4.45981,4.68348,4.73546,4.86396,4.88535,4.99453,5.55994,5.62749,5.9033,5.71436,5.90132,6.19645,6.09563,6.09819,5.83571,6.48524,6.71443,6.34597,6.36829,6.68645,6.92877,7.02055,6.89131,6.84528,7.29729,7.10293,7.20201,6.83545,7.06261,6.77234,6.74437,6.91354,7.0643,7.4077,7.47357,7.74603,7.85666,7.5617,7.47283,7.44241,7.47702,7.47073,7.25414,7.46591,7.8055,7.97901,8.11537,7.87688,7.76557,7.31626,7.2115,7.00095,6.98914,7.1486,7.22313,7.14638,7.36675,7.20759,6.97527,6.7144,6.83985,6.7951,6.82925,6.85804,6.96005,7.01269,7.56865,7.80136,7.58193,8.06301,7.84665,8.23899,8.03724,8.02994,8.45882,8.50499,8.67275,8.7118,8.59204,8.18899,7.686
5.04106,4.84973,5.04839,5.2502,5.28251,5.09895,4.75344,4.47852,4.50831,4.61519,4.94183,5.20736,5.32741,5.27192,5.0938,5.40527,5.55728,5.78452,5.82533,5.76152,5.58293,5.2089,4.86144,4.39898,4.27747,4.63102,4.84721,4.71192,4.52305,4.28556,4.56442,4.68406,4.40764,4.61074,4.55216,4.96786,5.10119,5.08141,5.12709,5.24009,5.11374,5.30197,5.13709,5.24852,5.48592,5.13409,4.80202,4.87331,4.82803,4.77775,5.17833,5.53131,5.22445,4.96519,5.00452,4.89803,4.4034,4.5572,4.39801,4.08316,4.33275,4.66651,4.40951,4.51877,4.65918,4.69375,4.88686,5.10361,5.16135,5.12871,5.34958,5.56818,5.43799,5.3489,5.15668,5.08025,5.15563,5.28831,5.42881,5.23899,5.55847,5.40768,5.41867,5.58231,5.60435,5.26377,5.42596,5.20124,5.34477,5.28232,5.25773,4.91021,4.79871,4.9586,4.87849,5.0212,4.71102,4.57317,4.25816,3.90131,3.68991,3.85649,3.82322,3.7171,4.00958,3.68186,3.36635,3.48788,3.83367,3.78828,3.62638,4.10549,3.99449,4.01911,4.26466,4.2055,4.5717,4.40862,4.28048,4.34911,4.7564,4.89173,4.72403,4.7491,4.87053,5.13394,5.46608,5.54944,5.74055,5.55889,6.10551,6.07912,5.92516,5.95813,6.40275,6.5163,6.55423,6.37603,6.73574,6.65669,6.58453,6.75097,6.93536,7.09744,7.2751,7.12024,7.03694,6.93338,6.89855,7.04873,7.19175,7.29997,7.22455,7.17356,7.6809,8.00065,7.49475,7.28704,7.65847,7.69134,7.70704,7.23648,7.62416,7.70115,8.099,8.35859,8.15342,7.92341,7.68946,7.36288,7.25286,7.38157,7.49373,7.60275,7.42531,7.26312,7.41968,7.47414,7.1003,7.25684,7.00441,6.70941,6.72127,6.6889,6.89196,7.0526,7.31328,7.17379,7.3494,7.67892,8.1199,8.19236,8.04184,8.08858,8.56534,8.3858,8.33739,8.46966,8.10774,8.00858
5.14242,4.88574,5.18848,4.97979,4.91845,4.94954,4.96082,4.80432,4.8601,4.71359,4.6893,5.05751,5.23477,5.19582,5.20403,5.47945,5.76573,5.50405,5.75254,5.89456,5.79069,5.47707,5.14455,4.5944,4.35835,4.56693,4.89776,5.0661,4.87252,4.87288,4.66159,4.66297,4.81788,4.49923,4.41129,4.61076,4.58033,4.59099,4.59514,4.69765,5.16053,5.10327,5.12622,5.17724,5.09947,5.15743,5.20194,5.08822,5.20962,4.92187,4.90294,5.33447,5.4978,5.01217,5.21456,5.09351,4.48176,4.43799,4.22203,4.34077,4.20826,4.66845,4.46424,4.47922,4.83003,4.98267,4.71206,4.65002,4.87789,5.26223,5.34554,5.72607,5.51712,5.25112,5.13351,5.27375,5.25867,5.38624,5.67816,5.39502,5.37114,5.65786,5.26379,5.13731,5.45848,5.39759,5.3964,5.47584,5.24303,5.11728,5.07646,4.88521,4.86011,5.13976,4.73482,4.93745,5.01376,4.53321,4.38284,4.1144,4.11037,3.95569,4.15155,3.95355,3.88967,3.65098,3.60892,3.54322,3.90133,3.71523,3.95322,3.87447,3.80871,3.84901,4.09201,4.19799,4.23279,4.19431,4.27861,4.51733,4.54022,4.7371,4.51096,4.42663,4.43956,4.85621,5.09501,5.20282,5.39691,5.72223,5.6864,5.66863,5.86212,6.12865,6.04979,6.50358,6.68542,6.69611,6.58432,6.69604,6.36723,6.32873,6.57054,6.71448,6.9915,6.80692,6.66205,6.86474,7.06547,7.1343,7.20211,6.99643,7.281,7.36053,7.27506,7.46482,7.32621,7.39493,7.27289,7.53358,7.77721,7.46069,7.40237,7.29569,7.69277,7.95883,8.3489,8.16639,7.83659,7.75201,7.53908,7.20375,7.47558,7.43562,7.32533,7.47146,7.21421,7.50668,7.2912,7.05795,6.94065,6.55748,6.89105,6.55154,6.62957,7.01176,7.31454,7.51333,7.46155,7.61021,8.04624,8.38301,8.02983,8.15898,8.19235,8.53622,8.19042,8.50015,8.17294,8.3088
4.78397,4.71237,5.05612,4.77205,4.96687,4.83565,4.66613,5.0098,4.98847,4.97125,4.61578,5.03038,5.02615,5.23524,5.15751,5.33733,5.34711,5.34728,5.53524,5.72679,5.65051,5.33387,5.46099,4.76896,4.41983,4.23732,4.34445,4.87347,4.80937,4.61673,4.3913,4.51601,4.64084,4.72506,4.54446,4.57557,4.77684,4.81652,4.98963,4.86979,5.2449,5.43981,5.23331,4.96749,5.20723,4.90614,5.25599,5.10104,5.45414,4.90439,4.69064,4.75971,5.24393,5.24289,5.27378,4.97105,4.90481,4.4851,4.38755,4.63737,4.64801,4.64035,4.73388,4.89191,4.66813,4.65494,4.73953,4.41377,4.52323,4.95235,4.89419,5.13926,5.4918,5.52535,5.3975,5.45422,5.19059,5.35491,5.62548,5.22004,5.1333,5.12659,5.06047,5.29087,5.26331,5.33077,5.06826,5.17049,5.03249,5.05077,5.16611,4.86271,4.99033,5.05355,4.95147,4.77465,4.71318,4.46283,4.44091,4.53724,4.32961,4.13419,4.02398,4.22873,3.97291,3.69387,3.63555,3.57233,3.43823,3.83166,3.89167,3.75309,3.94457,3.94104,4.07799,4.21152,4.00075,4.04054,3.99895,4.52603,4.30437,4.54549,4.59754,4.55377,4.4664,4.46235,4.9198,5.35192,5.14005,5.59927,5.69484,5.66783,5.53586,5.70194,6.03605,6.487,6.69089,6.55486,6.43049,6.64555,6.46504,6.1937,6.64829,6.89488,7.05192,6.89643,6.91227,7.12279,7.06285,7.24838,6.99291,6.9906,6.86967,7.00709,7.00302,7.40834,7.53654,7.31973,7.19013,7.52895,7.87575,7.82339,7.80608,7.69954,7.5604,7.94795,7.90107,8.22722,8.082,7.89792,7.64249,7.19004,7.58161,7.58878,7.17584,7.50363,7.16825,7.14017,7.29867,6.98265,7.06551,6.97324,6.68133,6.80845,6.97998,6.92275,7.01816,7.14552,7.09414,7.05362,7.81466,8.32896,7.98948,7.886,7.83802,8.36852,8.11166,8.57743,8.22244,7.97229
4.99358,4.58943,5.11351,4.85823,4.73117,4.52478,4.70356,4.8502,4.75164,4.73193,4.88119,4.79015,4.69302,4.69419,4.76155,5.2278,5.41309,5.11598,5.5991,5.68004,5.84565,5.88403,5.57153,4.91579,4.5958,4.67697,4.21378,4.52038,4.80203,4.75469,4.48175,4.61281,4.61734,4.82151,4.84083,4.97662,4.89342,4.73146,4.8125,4.80242,5.15198,5.5091,5.52541,5.19776,5.34148,5.03901,4.95914,5.15058,5.2371,5.36552,5.08028,4.68388,4.98638,5.11928,5.21704,5.02911,5.00804,4.7897,4.4145,4.4436,4.78776,4.55164,4.74022,4.53618,4.5781,4.39904,4.66241,4.37897,4.62151,4.95216,4.79164,4.76764,5.26823,5.6095,5.74862,5.76051,5.31142,5.50698,5.77299,5.67244,5.56101,5.23877,5.3171,5.19801,4.93617,4.9268,4.74202,4.72415,5.00927,5.04703,5.14319,5.0629,5.16771,4.95939,4.89759,4.57845,4.5203,4.43198,4.71719,4.73802,4.33315,4.13623,4.14812,4.24785,4.12322,3.8815,3.82224,3.56539,3.2139,3.40792,3.55578,3.55864,4.00929,3.95161,3.84212,4.03425,3.72694,3.96927,3.93468,4.35876,4.21006,4.23314,4.64863,4.44462,4.38609,4.42841,4.42571,5.14164,4.95768,5.37787,5.34303,5.65821,5.49746,5.76995,5.73533,5.88816,6.31952,6.41167,6.33427,6.54968,6.72032,6.58789,6.75247,6.93668,7.04147,7.0207,6.94945,6.73877,6.70723,6.92835,7.0015,7.24573,7.23782,7.24662,7.15119,7.04993,7.55987,7.51027,7.11405,7.3255,7.36118,7.84953,7.75272,7.59561,7.3205,7.81102,7.8589,8.19224,8.11148,7.83281,7.69045,7.16318,7.4716,7.43754,7.20909,7.43861,7.04005,7.37023,7.58165,7.15418,7.00468,6.72876,6.88415,6.71809,7.11796,6.86976,6.73238,6.97087,6.87442,7.18992,7.63893,7.98981,8.15606,8.18312,8.17303,8.05548,8.31325,8.62156,8.1493,8.2964
4.71871,4.5709,4.69912,4.54261,4.50153,4.68259,4.88459,4.95932,4.91423,4.67768,5.05771,5.19279,4.85876,4.58042,4.54437,5.06594,5.36171,5.33176,5.54534,5.62997,5.46399,5.52286,5.68693,5.43135,5.14147,4.66775,4.16873,4.40545,4.78529,5.0468,4.68602,4.87562,4.96443,5.09115,5.1685,5.23154,5.17703,4.94537,4.67226,4.64446,5.03015,5.42849,5.74269,5.29125,5.32487,5.25116,5.32821,5.23446,5.29027,5.46566,5.20789,4.91345,5.20565,5.31237,5.30488,5.06697,5.18677,5.22678,4.8874,4.84035,4.85318,4.80217,4.9999,4.65666,4.88601,4.72977,4.61785,4.56695,4.41979,4.91924,4.98585,4.9171,5.27621,5.23998,5.73193,5.44957,5.0865,5.05822,5.36062,5.35668,5.28789,5.19983,5.32071,5.37094,4.85592,4.95401,4.69427,4.84662,4.71583,5.13345,5.40849,5.11321,4.98242,5.07772,5.15446,4.57574,4.8128,4.69637,4.75965,4.87093,4.61283,4.36604,4.46337,4.10683,3.88149,3.81195,3.933,4.0091,3.6449,3.53545,3.45921,3.272,3.60651,4.05526,4.19272,3.82806,3.96625,3.75891,4.01255,3.97489,4.00669,4.31694,4.39039,4.20236,4.46029,4.57532,4.22228,4.8514,5.01698,5.01026,4.92068,5.42611,5.20518,5.3008,5.79942,6.14165,6.44673,6.38277,6.55872,6.47647,6.66006,6.92035,7.08488,7.04067,7.33835,7.23757,6.8051,6.93713,6.59113,6.5022,6.92268,6.87162,6.8947,7.25,7.23769,6.88088,7.16378,7.40727,7.13843,7.20043,7.0928,7.40629,7.52938,7.49495,7.12112,7.60962,7.81623,8.09012,8.143,7.80287,7.86282,7.26553,7.50727,7.44436,7.26353,7.28124,7.21558,7.1364,7.072,6.89342,7.18051,7.01995,7.20516,6.73002,7.02612,6.93277,6.5836,6.82462,6.8781,7.06431,7.18497,7.55909,7.73895,8.10648,7.93946,8.13847,8.14932,8.13783,7.93664,8.39448
4.62467,4.69595,4.6737,4.34363,4.41808,4.2564,4.75219,4.76186,4.67393,4.90589,4.80628,4.90959,4.70814,4.37957,4.20236,4.8234,5.1325,5.04944,5.04572,5.62592,5.70535,5.58541,5.87289,5.40208,5.28628,4.74133,4.72848,4.8618,5.01922,4.82785,4.52737,4.56117,4.71913,4.97063,4.91552,4.91624,5.09567,4.82663,4.65235,4.90891,4.94826,4.92887,5.51671,5.22188,5.51503,5.09247,5.32988,5.55948,5.55193,5.77127,5.59388,5.51423,5.06184,5.0937,4.93785,4.91747,5.28975,5.39661,5.40701,5.30111,4.88572,4.89988,4.73594,4.7112,4.79466,4.7778,4.68408,4.44205,4.49514,4.48059,4.93039,4.78912,5.14203,5.21322,5.58632,5.64254,5.10642,4.98405,4.96281,5.17128,5.48429,5.56411,5.70906,5.43299,5.10506,5.03954,4.67555,4.94388,4.74014,4.90604,5.30321,4.96544,5.18167,5.24126,5.39864,4.7361,4.73366,4.858,4.52098,4.55005,4.72134,4.79007,4.38084,4.00296,3.79158,3.54642,3.90462,4.13805,3.73993,3.89494,3.56747,3.23873,3.60326,3.79107,4.04674,3.91418,3.67858,3.56819,3.65539,3.57834,3.66399,3.74597,4.32819,4.20258,4.32081,4.38735,4.09106,4.25008,4.39021,4.97556,5.17045,5.49039,5.1468,5.10565,5.37333,5.73272,6.09211,6.43759,6.73166,6.40741,6.28631,6.60895,6.95427,6.89273,7.2275,7.22686,7.26894,6.86066,6.43321,6.623,6.48852,6.86957,7.1649,7.40314,7.56363,7.28301,7.14179,6.99191,7.12417,7.31911,7.00855,7.14588,7.58751,7.79411,7.66845,7.82624,7.56252,7.84258,8.03008,8.03869,8.22171,7.49025,7.63597,7.59278,7.24168,7.01078,7.23607,7.05087,7.0736,7.1524,7.40014,7.4996,7.53141,7.17885,7.39461,7.13982,6.60159,6.7061,6.5966,7.006,7.17609,7.56898,7.91431,8.04901,7.88822,7.71578,8.10527,8.33486,8.12726,8.20363
5.07177,4.96037,5.03776,4.64412,4.49109,4.55424,4.73153,5.01421,4.69313,4.91475,5.02822,5.19587,4.6544,4.30041,4.08366,4.21649,4.62727,5.11231,4.93918,5.49218,5.44573,5.67629,5.91201,5.78166,5.62178,4.96918,4.63971,4.76259,5.08972,5.10878,4.73346,4.67855,4.49167,4.87722,4.87617,4.84407,4.94649,5.01899,4.7443,4.6946,4.64356,4.52091,5.12196,5.22729,5.45178,5.57041,5.71437,5.54751,5.28094,5.41067,5.64976,5.38068,5.45492,5.30552,5.27691,5.22963,5.10932,5.12515,5.51321,5.51178,5.42837,5.23295,4.77693,4.47549,4.41244,4.89031,4.76699,4.69664,4.32292,4.50725,4.90215,4.61803,4.93322,5.17746,5.44304,5.61227,5.40008,5.46069,5.33245,5.08751,5.18539,5.43462,5.36961,5.22934,5.33273,5.38016,4.97612,5.05973,4.67345,4.8152,4.88214,4.67344,4.99955,5.3476,5.35464,5.19183,5.22751,5.21787,5.00172,4.89206,4.52754,4.81678,4.35543,4.30743,4.08156,3.55822,3.62563,3.58828,3.4447,3.52324,3.66581,3.23486,3.61919,3.54782,4.03355,3.78015,3.69805,3.61086,3.6187,3.86694,4.05467,3.81742,3.79496,3.83654,3.84607,3.95429,3.75713,3.71541,4.30107,4.45443,4.65896,5.16552,5.02324,5.35705,5.26251,5.6283,6.12146,6.28533,6.23063,6.25048,6.01111,6.2692,6.43779,6.51619,6.68716,7.23698,7.10976,7.02341,6.5789,6.37779,6.51319,6.57733,6.68326,7.23136,7.38864,7.42483,7.2465,6.89104,7.24602,7.36107,7.30468,7.25254,7.2679,7.34099,7.60391,7.70257,7.79081,7.70322,7.81891,7.94924,7.99611,7.59674,7.76975,7.71377,7.74417,7.43052,7.34652,7.01242,7.29546,7.0614,7.27446,7.37061,7.38242,7.05992,7.3958,7.39695,7.21236,7.00818,6.54191,6.77423,7.19937,7.62421,7.76909,7.96179,7.64926,7.50799,7.9729,8.02185,8.04335,8.3659
4.99956,4.9671,4.83227,4.6736,4.86359,4.75644,4.82172,4.69473,4.73162,4.53953,4.56202,4.59396,4.51341,4.27106,4.23191,3.9434,4.07715,4.72091,4.76516,5.20254,5.54613,5.35075,5.40277,5.7244,5.81136,5.63227,5.00023,4.65909,4.66662,5.15908,4.92678,4.53221,4.36203,4.54286,4.50875,4.87571,4.72694,5.05992,4.90952,4.59001,4.34212,4.48565,5.10048,5.07151,5.48198,5.34348,5.41528,5.23995,5.11339,4.98319,5.1183,5.19463,5.0424,5.28828,5.49821,5.078,5.39236,5.49818,5.4278,5.61988,5.28975,5.44192,4.91543,4.56622,4.22598,4.25983,4.31792,4.50091,4.36002,4.42355,4.75459,4.46589,4.79641,4.90787,5.01895,5.46229,5.41671,5.23431,5.44682,5.15685,4.88839,4.99898,5.21555,5.14419,5.12487,5.27213,4.886,4.76129,4.6224,4.66331,4.87737,4.80549,5.02389,5.34524,5.47041,5.15673,4.9177,5.18669,5.3654,5.25251,4.91265,5.11119,4.78049,4.45881,4.33262,3.96016,3.9205,3.52035,3.32806,3.55725,3.74869,3.54913,3.56084,3.3635,3.77167,4.02417,3.74934,3.60314,3.62252,3.72616,3.92154,3.99831,4.08758,4.14341,4.17276,4.07778,3.73788,3.44022,3.64462,4.03944,4.07622,4.80685,4.9032,5.36812,5.56153,5.43261,5.78531,5.84345,6.0176,6.09866,5.98863,5.83197,6.30262,6.6321,6.49022,6.82733,7.05036,7.29074,6.998,6.57144,6.76057,6.93625,6.91351,7.22,7.53522,7.62736,7.58085,7.2805,6.96545,7.34269,7.49302,7.47313,7.59082,7.60212,7.70177,7.71893,8.04865,7.75441,7.73935,7.99616,7.71292,7.73812,7.54974,7.73496,7.9311,7.76192,7.26235,7.13054,7.06025,7.36076,7.46354,7.11727,7.30639,6.9736,7.09673,7.20591,7.2033,7.28384,7.06591,7.01464,7.19408,7.29002,7.44669,7.80882,7.45847,7.24573,7.61014,8.10191,8.16728,7.98641
5.10223,5.22709,5.32225,4.85687,4.5891,4.57304,4.50576,4.50637,4.76192,4.8123,4.8798,4.81159,4.58107,4.60472,4.68918,4.23478,4.1348,4.16417,4.43202,4.69367,5.39612,5.43409,5.39674,5.47092,5.55223,5.38439,5.37514,5.24027,5.04427,5.08798,4.90242,4.79646,4.30895,4.69626,4.73411,4.84066,4.74175,4.99339,4.96767,4.99836,4.79074,4.42927,4.61247,4.6888,4.80715,5.32217,5.18567,5.06083,5.22187,4.8866,4.90392,4.92741,5.0577,5.35199,5.2167,4.99196,4.93586,5.22199,5.20897,5.66477,5.2837,5.47299,5.32335,5.08882,4.37853,4.55541,4.40586,4.33037,4.4142,4.26833,4.42957,4.29342,4.66812,4.70277,4.7193,5.30116,5.21149,5.20113,5.62181,5.65767,5.55659,5.11783,5.07726,5.23913,5.17668,4.93805,4.7352,4.95704,4.62893,4.83777,5.14909,4.86981,4.82742,4.94975,5.11295,5.40257,5.03364,5.046,4.95913,4.86492,4.65284,4.98506,4.96037,4.41033,4.48931,4.06692,3.81196,3.73621,3.78154,3.78302,4.02238,3.90216,3.92967,3.82903,3.54094,3.7045,4.01231,4.06132,3.66673,3.96306,3.7271,3.73853,3.7151,3.88833,3.93115,3.81065,3.77049,3.67196,3.93341,3.7268,3.89878,4.48142,4.44728,5.02251,5.43724,5.59017,5.80838,5.70291,5.58722,5.6204,5.93563,6.08833,5.984,6.17441,6.03783,6.15868,6.74621,6.92939,7.25517,6.82674,6.8545,6.78328,7.03845,6.93496,6.9949,7.23449,7.26226,7.20158,6.95349,7.30003,7.47478,7.62572,7.90533,7.56147,7.36177,7.51732,7.83876,7.96922,7.72249,8.15476,8.04129,8.03739,7.60843,7.63217,7.82754,7.7308,7.76625,7.5159,7.5716,7.4035,7.45043,7.03496,6.98824,7.04263,6.80037,7.26386,7.26643,7.10185,7.05949,6.7912,6.89298,7.30064,7.30051,7.74908,7.35259,7.05247,7.4141,7.5475,8.07375,8.22153
5.20102,5.2448,5.56991,5.47036,5.1404,4.86144,4.59076,4.67843,4.80698,5.07104,5.05065,4.64708,4.74553,4.73517,4.64514,4.24432,4.11498,4.09202,4.16037,4.41343,4.67397,4.86887,5.35553,5.2923,5.5091,5.61863,5.23117,5.191,5.12573,5.39717,5.1725,5.10997,4.58499,4.52229,4.42898,4.73744,4.73242,5.15526,4.94553,5.21288,4.82723,4.7018,4.41196,4.58636,4.61846,5.14871,5.17969,5.25083,5.42212,5.05997,5.26871,5.1238,5.22135,5.24987,5.02399,5.25511,4.83695,5.18249,5.1725,5.66152,5.31715,5.12543,5.49162,5.24393,4.70075,4.41302,4.60679,4.25206,4.48876,4.1097,4.30182,4.48178,4.38395,4.42735,4.83736,4.77467,5.09684,4.90258,5.00269,5.16218,5.62306,5.48883,5.52766,5.5611,5.49342,5.25071,4.83201,5.13259,4.81962,5.09707,4.89482,4.79673,4.51677,4.68267,4.68607,5.24169,4.97664,4.76962,4.80978,5.01461,5.03669,5.30001,5.13473,4.80754,4.49619,4.34186,4.35046,4.32359,4.25879,4.00943,3.94611,3.97719,4.06587,4.23039,3.62411,3.72862,3.895,3.74035,3.62763,3.97443,3.61879,3.42065,3.74613,3.87768,4.00536,4.13905,3.7874,3.82579,4.11557,3.70261,3.71821,4.17221,4.18265,4.81301,4.97551,5.2553,5.25974,5.60724,5.49381,5.45707,5.73991,5.87247,6.00875,6.16925,5.91344,5.88349,6.01819,6.61144,7.00713,6.6239,6.86144,6.65683,6.85754,7.14641,7.01273,7.02263,6.86421,6.84035,7.19079,7.15601,7.11054,7.41237,7.91248,7.66046,7.78881,7.89165,7.78341,7.69101,7.85349,8.21014,8.32158,8.10336,8.04909,7.64792,7.57447,7.59842,7.54727,7.46236,7.59822,7.7227,7.8179,7.50304,7.22656,6.84305,6.54517,6.88924,7.24781,7.32195,7.2496,7.28571,6.99446,7.38639,7.43796,7.53143,7.52232,6.99185,6.91267,7.4324,7.83701,7.73259
4.89357,4.84538,5.03047,5.41315,5.19803,5.11097,4.79225,5.02841,4.6455,4.69078,4.59573,4.81457,4.82718,4.99912,5.01284,4.87315,4.40775,4.16371,4.24487,4.31382,4.29319,4.61166,5.20153,5.20833,5.34983,5.58205,5.53584,5.31139,4.99399,5.30463,5.25292,5.34829,5.18114,5.00715,4.91789,5.10029,4.85734,4.74129,4.61746,4.94189,5.03225,4.58072,4.43879,4.27363,4.3657,4.56265,5.00143,4.87586,5.27205,5.2323,5.48626,5.10694,5.31695,5.41693,4.92956,5.36043,4.90007,4.95641,4.82709,5.23872,5.01405,5.12132,5.56842,5.61422,5.20115,5.01712,4.85981,4.3301,4.36969,4.51544,4.38433,4.25031,4.36483,4.35999,4.52424,4.5631,4.9539,5.21911,5.20161,5.3153,5.50251,5.43256,5.63384,5.44806,5.56869,5.53628,5.29022,5.02156,5.2042,4.92567,4.63966,5.01712,4.87299,4.6809,4.46,4.72884,5.02196,4.92171,4.59669,4.94438,4.6997,5.19928,5.13983,5.09928,4.89664,4.57159,4.25978,4.20501,4.24778,3.90832,4.14416,4.25676,4.40921,4.27903,4.1096,3.77484,3.62154,3.5019,3.71356,3.98997,4.0776,3.51098,3.69925,3.87505,4.03968,3.9288,3.6148,3.52065,3.83384,3.80413,3.98633,3.954,4.36394,4.48607,5.02904,5.08444,4.97235,5.5017,5.4703,5.72803,6.00365,6.18288,6.00218,6.0888,5.99291,5.65898,6.02757,6.25451,6.78584,6.6502,6.7972,6.75971,6.71235,7.12438,7.33392,7.18856,7.12118,7.27633,6.99335,6.88195,6.94493,7.34936,7.42009,7.52401,7.65885,8.02473,8.0875,7.86244,7.75647,8.12809,8.38052,7.98498,7.85514,7.6272,7.54017,7.56255,7.25841,7.4786,7.36873,7.3581,7.75386,7.6051,7.36497,7.31729,7.06683,6.74973,6.80156,6.92641,6.83134,7.27445,6.95795,7.06982,6.99044,7.50805,7.67024,7.36372,7.39994,7.22103,7.34255,7.51575
5.06456,4.71231,5.14945,5.49937,5.36174,5.40532,5.2927,5.29979,5.04125,5.15874,4.7439,4.98554,4.9871,4.9426,4.81004,4.74414,4.77526,4.38526,4.1345,4.11567,4.12225,4.35784,4.73069,4.79446,5.05526,5.48025,5.6063,5.42613,4.98433,4.93649,4.99296,4.94926,5.08087,4.88472,4.7835,4.66412,4.71014,4.94795,4.65844,4.97323,4.72943,4.81895,4.38894,4.30156,4.33982,4.59089,4.66706,4.94853,5.14814,5.22756,5.48214,5.39262,5.61543,5.48575,4.91448,5.14763,5.01966,4.7944,4.98505,5.27863,4.94839,4.85676,5.28444,5.17695,4.92426,4.90868,5.06862,4.52219,4.649,4.87466,4.9162,4.46354,4.36711,4.17493,4.53476,4.74398,5.03449,5.10829,5.20315,5.14134,5.43142,5.2354,5.46421,5.6374,5.67161,5.88725,5.29609,5.38073,5.01475,4.77001,4.55851,4.67722,4.82386,4.86084,4.60285,4.43002,5.01539,4.76818,4.9759,4.68267,4.55032,5.00293,4.97665,5.19603,4.99315,4.62777,4.22964,4.41865,4.54405,4.17524,4.26812,4.05898,4.31092,4.44929,4.534,4.35969,3.95679,3.63092,3.48939,3.52685,3.67904,3.73301,3.5893,3.89929,4.07041,3.76392,3.63781,3.51847,3.43479,3.61944,3.68479,4.11868,4.52757,4.73258,5.15513,5.32408,5.26451,5.63534,5.72451,5.51931,5.6255,5.9288,5.94489,5.77134,5.80306,5.77712,5.94529,5.88876,6.48022,6.54595,6.41926,6.81922,6.89726,6.7119,7.10388,7.03982,6.82196,6.97514,6.98992,7.02847,6.90102,7.17776,7.25098,7.33181,7.55916,7.71778,7.77448,7.79905,8.05584,8.00164,8.41866,8.38436,8.31832,7.84775,7.49816,7.27406,7.52304,7.74105,7.57365,7.21552,7.70631,7.49214,7.48695,7.58308,7.24984,6.77721,6.66155,6.92422,7.15133,7.47008,7.30111,7.45286,6.94435,7.37909,7.79424,7.57806,7.26937,7.40831,7.28681,7.23306
4.87138,4.62333,5.01133,5.01135,5.07144,5.13978,5.03115,5.04159,5.32469,5.13639,5.06711,4.74868,4.76292,5.04488,5.02307,5.12712,4.74407,4.72754,4.29937,4.03252,3.82774,4.17184,4.65491,4.4662,4.64129,5.05363,5.10134,5.55218,5.09096,5.28284,4.85035,5.1942,5.17511,5.21687,4.79071,4.89308,5.05667,4.7669,4.62461,5.03912,4.81446,4.9266,4.67998,4.43083,4.49644,4.67095,4.51025,4.68773,4.81062,4.7221,4.90448,5.08345,5.44196,5.73486,5.34248,5.0278,4.78147,4.98712,5.17813,5.25788,4.94206,4.84594,4.83417,4.75101,4.56052,4.60171,5.0251,4.71234,4.8344,5.14258,4.93061,4.72081,4.57752,4.07698,4.59943,4.57375,4.74537,5.06847,5.06648,4.84332,5.04482,5.24249,5.49513,5.59226,5.74474,5.68428,5.54136,5.61103,5.0591,4.85141,4.60066,4.65197,4.55154,4.80666,4.4475,4.1429,4.78672,4.55048,4.96489,4.6,4.70876,5.15532,4.92006,4.76086,4.72196,4.87556,4.74855,4.88239,4.4538,4.27582,4.49077,4.36046,4.25082,4.10303,4.0191,4.15904,4.21153,4.02598,3.84024,3.48948,3.84129,4.02606,3.82667,3.80145,3.84622,3.71607,3.5291,3.72839,3.6419,3.83627,3.88869,4.05849,4.02956,4.13784,4.86861,5.20935,5.43175,5.74245,6.0005,5.69249,5.68579,5.84922,5.77381,5.51436,5.46259,5.59518,5.48391,5.84356,6.11535,6.28958,6.20056,6.34514,6.76673,6.71571,6.94745,7.09292,6.6596,6.57221,6.49244,6.95694,7.15898,6.93404,7.16419,7.43875,7.69975,7.78794,7.85064,7.76481,7.96044,8.0159,8.11406,8.5399,8.3477,8.28147,7.92072,7.60317,7.40465,7.51388,7.64277,7.63264,7.89093,7.97244,7.98789,8.07026,7.64453,7.3239,6.9955,7.00189,7.09403,6.99836,7.01649,7.1833,7.00193,7.12662,7.41502,7.26824,7.0646,7.25843,7.18581,7.3999
4.70699,4.92858,4.80308,4.65873,5.11788,5.20045,5.2663,5.15186,5.17662,5.06912,4.76814,4.70726,5.01948,4.98,4.71689,4.98619,5.12675,4.66872,4.51176,4.32073,3.82092,3.8766,4.1896,4.60893,4.71004,4.87077,4.90183,5.21498,5.06615,5.33643,4.79827,4.96294,5.2555,5.28303,4.90848,4.74654,5.11889,5.10794,4.73754,4.70694,4.59706,4.93488,4.7301,4.69484,4.47626,4.86044,4.60865,4.71734,4.55484,4.83505,4.95421,4.90624,4.91903,5.51307,5.34989,5.39165,5.32306,5.19936,5.4553,5.059,4.87778,5.06611,4.68961,4.89799,4.68162,4.52588,4.55536,4.66095,4.90305,4.84253,4.95845,5.05979,4.72801,4.31207,4.20574,4.28191,4.78055,4.89077,5.05099,4.73233,5.07217,5.33361,5.67987,5.40163,5.73479,5.41397,5.63655,5.48761,5.09341,4.69382,4.79759,4.78667,4.92376,4.65599,4.42806,4.27251,4.69752,4.33388,4.88218,4.82317,4.82787,4.79241,4.70177,4.70898,5.01366,4.72901,4.55216,4.89096,4.53879,4.53935,4.64254,4.71533,4.30672,4.4828,4.30512,4.45138,4.08283,4.0841,3.77839,3.69489,3.57766,3.57201,3.98283,3.70423,3.62936,3.69255,3.90932,3.92654,3.49823,3.37214,3.64783,3.7532,3.67613,3.88621,4.40519,4.90251,5.28271,5.30197,5.43439,5.34597,5.6394,5.86192,5.63593,5.57748,5.70394,5.74303,5.34881,5.62398,5.761,6.11422,5.97585,6.26313,6.34065,6.42331,6.97276,6.76038,6.79012,6.89121,6.49032,6.57838,6.9717,6.87554,6.7639,7.1704,7.21539,7.26903,7.82426,8.03287,8.23553,8.13774,8.13131,8.43403,8.3532,8.09405,7.85783,8.02626,7.80091,7.5859,7.49432,7.52409,7.45184,7.85522,8.0317,7.97964,7.94813,7.79197,7.18472,7.18869,7.04442,6.94395,6.92693,7.0987,7.20466,7.0918,7.24589,7.53639,7.27171,6.99038,7.07677,7.07932
5.10113,5.21641,5.10109,4.9001,4.7648,4.81783,5.33798,5.50139,5.51196,5.27659,5.27415,4.96545,4.78036,4.70117,4.62984,4.52623,4.5335,4.4686,4.70818,4.41054,3.93963,4.09394,3.89402,4.31099,4.57966,4.85526,5.01277,4.96172,4.97721,5.0302,4.89185,4.83171,4.84592,5.35294,5.25578,5.22318,5.43572,5.53536,4.94859,4.907,4.83934,4.76214,4.55565,4.41872,4.74505,4.72126,4.47335,4.81655,4.86368,4.75656,4.65363,4.78188,4.70028,4.9181,5.11739,5.36453,5.61739,5.60614,5.75762,5.49573,5.21223,5.07636,4.83737,4.66904,4.94803,4.56892,4.31105,4.62911,4.52124,4.58408,4.71012,4.90972,4.768,4.71841,4.34095,4.55241,4.95632,5.04547,4.95545,4.98756,5.08107,5.22079,5.16156,5.57404,5.60036,5.76187,5.79511,5.73348,5.22638,4.71737,5.01703,4.91894,5.04122,5.00472,4.56873,4.63331,4.61377,4.33453,4.61861,4.90167,5.13415,5.00534,4.59723,4.60189,4.61665,4.43942,4.55593,4.75273,4.49874,4.68207,4.48519,4.59626,4.50764,4.33219,4.55854,4.32617,3.96855,3.76754,3.55913,3.70211,3.80894,3.62221,3.75899,3.89209,3.55406,3.39474,3.50724,3.8073,3.54535,3.69382,3.60398,3.42877,3.45229,3.38536,3.88174,4.20102,4.76128,5.20543,5.50483,5.54399,5.30441,5.5994,5.7373,5.93839,5.81694,5.5373,5.56959,5.54787,5.38686,5.47854,5.45366,6.02834,6.30832,6.23613,6.78434,6.92619,6.62011,6.72699,6.31212,6.6771,6.5377,6.48654,6.55888,6.72768,7.20364,6.94376,7.55448,8.06529,8.37946,8.01904,8.12938,8.07835,8.02149,7.9689,8.03116,7.98366,7.72028,7.82927,7.77976,7.68081,7.60123,7.6412,7.61168,7.80744,7.73315,7.98371,7.67658,7.658,7.17349,6.92155,7.10632,7.39636,7.26752,6.9537,6.95947,7.23403,7.1934,7.1108,7.16912,7.12237
5.07153,5.06848,4.81604,4.63616,4.68275,4.4773,5.12811,5.25398,5.47253,5.40655,5.63917,5.22302,4.78901,4.6855,4.84491,4.65462,4.63513,4.72813,4.47601,4.18697,4.14576,4.38137,4.11545,4.35653,4.45701,4.72675,5.1444,4.79162,5.16936,5.37954,4.89067,4.93316,4.69564,5.19672,5.42347,5.30926,5.13458,5.48335,5.27062,5.25326,4.96066,5.11731,5.08249,4.48264,4.73311,4.72473,4.61784,4.8926,5.01254,4.63845,4.36981,4.32107,4.6856,4.89818,4.84128,4.95636,5.43195,5.31982,5.40635,5.44596,5.59991,5.34239,4.82495,4.46966,4.81681,4.62083,4.19581,4.44658,4.35291,4.64388,4.5387,4.79732,4.88201,4.84783,4.57471,4.42824,4.79053,4.78299,4.68088,4.67715,4.67943,4.80889,5.14484,5.63706,5.40936,5.41698,5.65993,5.42563,5.54901,5.12833,5.15332,5.01001,5.1107,5.02424,4.84347,4.50972,4.76464,4.37131,4.37267,4.5387,4.92803,4.78933,4.55209,4.34186,4.57033,4.22742,4.43857,4.88633,4.84985,4.5013,4.38491,4.65225,4.64177,4.73424,4.38978,4.37873,3.99532,3.97854,3.57242,3.62301,3.55721,3.34183,3.57919,3.98662,3.76724,3.66121,3.40305,3.40774,3.39889,3.51245,3.56658,3.52202,3.31208,3.32271,3.71676,3.77865,4.36295,4.75052,5.37229,5.29027,5.22699,5.65761,5.71836,5.75142,5.59582,5.70718,5.35077,5.30569,5.50247,5.54099,5.61559,6.03601,5.99435,6.01823,6.48676,6.83918,6.97905,6.78668,6.54889,6.74231,6.48553,6.18726,6.13575,6.5958,6.96552,6.86189,7.30969,7.54267,8.001,7.7922,8.13966,7.96575,7.96102,8.00973,8.17978,7.78353,7.65938,7.6436,7.58719,7.47338,7.48815,7.60247,7.46881,7.8062,7.83832,7.98855,7.93448,7.87594,7.69521,7.37912,7.27418,7.29719,7.19634,6.99565,7.1599,6.97788,7.05391,7.05696,7.2831,7.38574
5.16655,4.87108,4.6267,4.66201,4.90206,4.84684,5.06911,5.31797,5.14322,5.01396,5.62538,5.21784,4.85631,4.59068,4.64275,4.63085,4.81944,4.77631,4.47481,4.53344,4.4066,4.52382,4.08845,4.44886,4.55113,4.67905,5.00807,4.75261,4.93914,4.98884,5.00359,4.8049,4.85241,4.92791,5.0073,5.31414,5.21235,5.46274,5.64878,5.46533,5.00432,5.27909,5.05785,4.67509,4.46712,4.57617,4.4037,4.61645,4.7879,4.77887,4.32316,4.21133,4.41302,4.66148,4.92482,4.81628,5.11218,5.1954,5.3283,5.23519,5.12145,5.01561,5.13871,5.05341,5.02909,4.94874,4.6378,4.81127,4.79094,4.77553,4.60777,4.74121,4.80289,4.79249,4.66954,4.52502,4.75671,4.68777,4.93008,4.95763,4.99357,4.6641,5.05527,5.54179,5.33807,5.2026,5.16647,5.34355,5.57304,5.22976,4.98213,4.83301,5.05954,4.93608,4.65053,4.46308,4.58581,4.2871,4.40458,4.503,4.96547,4.8394,4.56224,4.38039,4.62776,4.55442,4.21492,4.296,4.49061,4.76593,4.44166,4.59632,4.81126,4.80792,4.82602,4.87647,4.35838,3.99118,3.6679,3.53543,3.72271,3.27831,3.46429,3.95928,3.81199,3.533,3.59756,3.27492,3.40975,3.7104,3.37763,3.7263,3.27604,3.42006,3.85967,3.85585,4.40781,4.72283,4.99503,5.15698,5.20978,5.63446,5.78524,5.99356,6.03901,5.79964,5.73656,5.44893,5.18559,5.308,5.4039,5.85325,5.80214,6.1741,6.45063,6.74741,6.93375,6.57956,6.3877,6.61497,6.77919,6.7595,6.40795,6.68081,7.05077,6.72063,6.94724,7.42587,7.53412,7.83757,8.00395,8.06824,7.91275,7.89469,7.85908,7.73194,7.97405,7.98433,7.9191,7.62461,7.77952,7.96418,7.5965,7.60926,7.85799,7.87946,7.92906,7.79745,7.94048,7.40938,7.46376,7.65816,7.39153,7.12279,6.9366,6.93333,7.05478,6.80716,6.95526,7.04093
5.11833,4.88861,4.82384,4.58474,4.78459,4.53323,4.94091,5.13553,5.08755,4.75972,5.00377,4.93297,4.71255,4.94618,4.68891,4.6138,4.85654,4.87684,4.83866,4.60396,4.72202,4.50052,4.5647,4.69054,4.75588,4.84429,4.83176,5.04944,5.10434,4.74777,4.95298,5.00725,4.75965,4.86715,4.97961,4.86077,4.93574,5.23809,5.38537,5.50889,5.18074,4.95391,4.95506,4.98055,4.70868,4.84139,4.7319,4.89963,4.86649,4.70525,4.3014,4.47,4.27957,4.20294,4.46259,4.52664,4.81967,4.90929,5.07645,5.4328,5.07549,5.09328,5.19656,4.88756,5.03099,4.6995,4.59238,4.85055,5.10972,5.20113,5.04821,4.71132,4.5365,4.90429,4.87061,4.4952,4.8795,5.03386,4.83625,5.13966,5.18108,4.96404,4.82045,4.98306,4.93762,4.8227,4.92418,5.38538,5.77471,5.70658,5.42664,5.38553,5.27726,5.12393,4.92608,4.78615,4.55189,4.58212,4.48943,4.27256,4.49186,4.70447,4.69286,4.30257,4.58131,4.77761,4.29978,4.3276,4.67756,4.96213,4.48867,4.74976,4.86856,4.85875,4.81218,4.65811,4.58291,4.43618,4.19571,3.70284,3.84267,3.8599,3.6738,3.84426,3.81715,3.69832,3.35128,3.31271,3.19207,3.20535,3.25728,3.27617,3.09927,3.10303,3.39726,3.44578,4.15848,4.52825,4.65774,4.78206,4.94382,5.21441,5.79423,5.81435,5.99472,6.04607,6.01472,5.4774,5.44186,5.43917,5.39981,5.57143,5.5435,5.65602,5.97063,6.48592,6.86969,6.89721,6.7391,6.9515,6.61366,6.70616,6.32649,6.60944,6.96,6.79634,6.59651,6.80412,7.46508,7.45923,7.98123,7.97388,8.21595,7.97038,7.76808,7.97007,7.78399,7.6923,8.0347,7.96708,8.02116,8.03349,7.61847,7.64972,7.45911,7.60002,7.73953,7.71247,7.65307,7.41969,7.18414,7.32456,7.15756,6.93257,7.02667,7.15943,7.31928,6.89285,7.09272,7.21965
5.35049,5.35502,5.07999,5.10958,4.66369,4.3003,4.83023,4.9978,4.86751,4.9591,5.13678,4.87974,4.79191,5.16745,5.22064,4.94707,4.96501,4.63687,4.99579,4.8567,5.03309,4.48736,4.34568,4.7435,4.83523,4.97187,4.75003,4.84771,4.6892,4.57932,4.8663,5.21234,5.21881,5.1593,5.35435,5.15933,5.2269,5.38325,5.28524,5.50497,5.38707,4.97584,4.78681,5.17509,5.01727,5.01221,4.89405,4.81782,5.08025,4.62317,4.62368,4.47993,4.3027,3.99232,4.50485,4.47548,4.93249,4.87754,4.9998,5.12761,5.15357,4.82646,5.10482,4.79994,4.77295,4.48774,4.72664,5.06557,5.07045,4.84592,4.6584,4.53332,4.4384,4.90225,4.96662,4.98128,4.94859,4.80753,4.6386,4.87831,4.73311,4.5665,4.79153,4.79805,4.62153,4.86019,4.87682,5.10236,5.15286,5.72433,5.34966,5.51772,5.13236,4.86444,4.76113,5.01861,4.48898,4.40212,4.37443,4.56324,4.51324,4.49263,4.87056,4.45099,4.62421,4.76168,4.32587,4.05141,4.4501,4.77624,4.68263,4.5724,4.66824,4.87447,4.91497,4.97433,4.63362,4.78351,4.65481,4.19086,4.27559,3.80963,3.79325,3.7301,3.88708,3.83388,3.48963,3.46336,3.2889,3.02772,2.94001,3.18737,3.20928,3.23395,3.34879,3.6388,3.90229,4.16817,4.44421,4.5769,4.60765,4.67087,4.96274,5.52545,6.04841,6.26033,5.9351,5.47622,5.19226,5.31096,5.20344,5.53616,5.79484,5.93895,6.18691,6.55045,6.98719,6.92009,6.77987,7.06235,6.82619,6.71879,6.29457,6.5363,6.74986,6.7764,6.9435,6.74778,7.09064,6.97623,7.21234,7.67638,8.18253,7.97785,7.61218,7.78058,7.65188,7.49708,8.05733,8.23761,8.15226,7.83403,7.79526,7.67312,7.28577,7.54294,7.80124,7.96793,7.55763,7.49784,7.45384,7.33084,6.94992,7.08406,7.18956,6.98505,7.39218,6.95047,7.08224,7.35545
5.13288,5.02909,5.31668,5.45661,4.7636,4.37476,4.39137,4.99389,5.22472,5.10462,5.10497,4.95894,4.92441,5.10365,5.46034,5.44776,5.1251,4.812,4.72163,4.85209,5.21061,4.66873,4.66645,4.90712,5.11722,5.15747,4.67694,4.88606,4.57877,4.70837,4.68041,4.79068,4.92647,4.79724,4.87718,5.11692,5.17101,5.24913,4.99198,5.25382,5.31358,5.0027,4.67335,4.79512,5.1393,5.10881,5.00698,4.87949,4.77038,4.53625,4.75638,4.73401,4.50467,4.54294,4.40355,4.3162,4.76135,4.96894,5.25481,5.15578,5.1328,4.68608,5.17216,5.06401,4.95639,4.46387,4.35047,4.73116,5.09287,5.03543,4.89408,4.91917,4.5489,4.80689,4.82345,4.92746,5.03442,4.81397,4.56073,4.65735,4.69422,4.40381,4.88627,4.64191,4.91674,5.01127,4.95082,4.88577,4.89055,5.0655,5.27272,5.22771,4.97431,5.10467,4.802,4.80215,4.83769,4.46416,4.68476,4.44789,4.46345,4.55529,4.65168,4.26235,4.49057,4.45821,4.37024,4.06409,4.34397,4.79297,4.93009,4.84056,4.83309,4.96232,5.05886,4.86232,4.58073,4.89002,4.97282,4.45593,4.66329,4.04794,3.76661,3.62699,3.65778,4.01977,3.96619,3.60458,3.43345,3.06702,2.9865,3.38022,3.35551,3.41157,3.56437,3.68968,3.87617,4.09197,4.30554,4.69979,4.47497,4.50915,4.48456,4.87255,5.31802,5.60956,5.68029,5.70388,5.67663,5.78339,5.38196,5.60468,5.61108,6.03486,6.07609,6.5071,6.4942,6.67297,7.00943,6.86959,6.88801,6.8403,6.36929,6.28173,6.72541,6.94922,7.02447,7.14973,7.06951,6.85062,7.21521,7.40044,7.59528,8.06779,7.86755,8.05164,8.05689,8.00858,7.86282,7.85414,7.75104,7.54221,7.66147,7.39422,7.25331,7.36184,7.46757,7.43746,7.40843,7.23513,7.62097,7.41805,7.03287,6.86663,7.19749,6.97762,7.21806,7.1032,7.35182,7.49105
4.93723,5.22171,5.43404,5.57228,5.17176,5.07279,4.60328,4.69688,4.82789,4.9441,5.05644,5.30091,5.00403,4.89629,5.10986,4.98402,5.30838,5.30698,5.25662,5.1661,5.07568,4.88779,4.67922,4.64232,4.90157,5.07593,4.85635,4.5931,4.38308,4.38719,4.36678,4.42378,4.40206,4.7565,4.86435,5.0265,5.24929,5.21283,4.91222,5.12415,5.07092,4.75631,5.01041,4.60598,5.02273,5.07163,5.16605,5.05536,4.83723,4.91498,4.74738,5.00651,4.61968,4.51755,4.75494,4.71233,4.92384,4.81022,5.29214,5.29971,5.26603,4.83918,4.91855,5.25151,4.97264,4.72694,4.41186,4.28935,4.46263,4.83072,4.86403,4.94893,4.74109,4.76488,4.7524,4.9281,5.18168,5.26297,5.11726,4.7634,4.98882,4.59498,4.59441,4.83471,4.87055,4.93306,4.94021,4.72915,5.03819,4.85801,4.96123,4.91155,5.22465,5.01377,4.80562,4.93644,4.983,4.9165,4.73481,4.3951,4.17682,4.11915,4.59389,4.49214,4.4962,4.20046,4.01621,3.95307,3.87694,4.24635,4.51327,4.92693,4.65223,4.923,4.99859,4.92408,5.01334,4.98651,4.68856,4.69232,4.87905,4.50618,4.30948,3.67664,3.52713,3.90426,4.17335,4.0319,3.85864,3.69659,3.48974,3.50409,3.64745,3.53101,3.38801,3.53871,3.74446,3.64916,4.04307,4.53595,4.38965,4.63587,4.45881,4.92348,5.01097,5.54028,5.85069,6.02197,5.92029,6.04031,5.55292,5.37482,5.5807,5.81367,5.69063,6.12843,6.0599,6.29819,6.90486,7.13927,6.8901,6.88613,6.48398,6.22924,6.21588,6.68999,6.62778,7.17429,7.16281,6.95232,7.28538,7.37279,7.26051,7.50585,7.54357,7.7273,7.79408,7.91777,7.82302,7.75703,7.45796,7.70185,7.69414,7.77021,7.6927,7.32797,7.51659,7.5771,7.74969,7.25343,7.42115,7.48689,7.20076,6.76121,6.79255,6.69401,6.90893,6.79525,7.36829,7.58456
5.03137,5.31785,5.08978,5.36196,5.50737,5.51088,4.99683,4.77357,4.99829,4.89545,4.92007,5.14237,5.15643,4.93053,5.14788,5.15282,5.02955,5.34749,5.58956,5.21731,4.98698,4.68152,4.43816,4.47905,4.80137,4.97862,4.9895,4.99598,4.64446,4.23206,4.0033,4.34397,4.46157,4.48875,4.61857,4.62686,5.07763,4.97561,5.00628,5.24972,5.08414,4.78516,4.94792,4.89236,5.08482,5.26585,5.09653,5.07371,4.94225,4.96122,5.02466,4.74227,4.8735,4.40117,4.41265,4.32575,4.73199,4.79905,4.99247,5.17416,5.28343,5.29535,5.29599,5.31627,4.87194,4.90948,4.75995,4.67666,4.3871,4.68813,4.64985,4.86768,4.83017,4.97661,4.73268,4.72428,4.92454,5.01941,5.14455,4.70804,4.89736,4.50654,4.49363,4.79409,5.00769,4.91499,5.15988,4.84776,4.71422,4.7773,4.58128,4.77226,5.19343,5.21711,4.81385,4.65562,4.9906,4.79335,4.74908,4.30677,4.3374,3.98791,4.20838,4.61396,4.46179,4.42949,4.43747,4.46377,4.15794,4.13724,4.608,4.6676,4.56233,4.85652,4.74384,4.95052,4.74666,5.15275,5.1602,4.63364,4.73089,4.49934,4.42226,4.20493,3.93459,4.17404,3.94183,3.75214,3.93872,3.63491,3.72718,3.56291,3.5308,3.58668,3.41157,3.22102,3.34946,3.65985,4.02935,4.07264,4.03503,4.11671,4.06167,4.22798,4.44784,5.07965,5.34398,5.82126,5.85089,6.15932,6.07495,5.76984,5.79913,5.55282,5.59067,6.00812,6.04456,5.89505,6.41647,6.64215,7.04426,7.04789,6.76475,6.65761,6.189,6.36178,6.24078,6.82624,6.79591,6.91655,6.90978,7.07983,7.31351,7.20596,7.35799,7.51466,7.81943,7.8775,7.76412,8.05088,7.85352,7.70602,7.67311,7.91954,7.63674,7.22791,7.52196,7.25115,7.60418,7.35016,7.34105,7.58141,7.31371,6.74514,6.8266,6.86925,6.73608,6.61669,6.7624,7.4642
5.14549,5.06199,4.87878,5.22183,5.23599,5.20789,5.25725,4.76201,4.66568,5.05687,5.24237,5.26468,5.03598,4.77206,5.17493,5.09245,4.97892,5.14488,5.392,5.05865,4.7277,4.89151,4.82011,4.86821,4.68162,4.7084,5.12249,5.05955,4.93658,4.70456,4.59641,4.46344,4.35774,4.65528,4.71644,4.6105,4.66059,4.91511,5.13286,4.99739,4.77011,4.62118,4.59266,4.44718,4.99632,4.99103,5.32298,5.44649,5.41568,5.20152,5.08527,4.80757,4.96625,4.61111,4.32912,4.52218,4.34953,4.37889,4.41763,4.92814,5.03679,5.22036,5.26969,5.00743,5.01015,4.70167,4.91659,4.55029,4.28084,4.75124,4.6568,4.53245,4.40977,4.56951,4.5199,4.33523,4.79269,4.74789,5.22581,5.10227,4.86592,4.71645,4.43203,4.41282,4.50953,4.4382,5.08337,4.95286,4.7299,4.73359,4.50586,4.4352,4.60829,4.84407,4.53303,4.61481,4.80258,4.90315,4.99381,4.39174,4.41781,4.00443,4.28892,4.49038,4.72035,4.35373,4.44004,4.66746,4.23227,4.48129,4.31545,4.71119,4.34152,4.31744,4.29306,4.85035,5.05045,4.8122,5.16243,4.76559,4.83537,4.94532,4.82973,4.2862,4.00146,3.84843,3.98627,3.79845,3.84818,3.85149,3.81875,3.62647,3.67462,3.55199,3.18874,3.26991,3.42809,3.78497,3.66699,3.60642,3.99248,3.88105,4.21911,3.98376,4.03472,4.42974,4.98695,5.35295,5.57305,6.05283,5.87866,6.11878,5.71711,5.60568,5.34704,5.82169,5.77096,5.70583,6.03455,6.179,6.77685,6.72677,6.48596,6.67179,6.36103,6.07576,6.28049,6.72068,6.61061,6.69309,6.75271,7.11171,7.02493,7.32314,7.2096,7.64329,7.91669,8.02398,8.0411,8.23055,8.24131,7.90299,7.80906,8.12195,7.60695,7.47345,7.52437,7.56172,7.83756,7.47567,7.36911,7.19235,7.28975,6.95498,6.99632,7.00512,7.16855,7.03517,7.12599,7.32916
5.17714,5.00015,4.92015,4.84804,4.94644,4.80081,4.7489,4.86642,4.48067,4.71244,4.77167,5.30203,5.24187,5.00065,5.34543,5.01926,4.90467,4.86226,5.28853,5.25833,4.78948,5.02638,4.66585,4.66126,4.37285,4.59649,4.81011,5.05239,4.91106,4.74271,4.81592,4.50283,4.159,4.15004,4.31152,4.68134,4.38093,4.49683,4.81449,5.11018,4.83973,4.63848,4.46628,4.4174,4.5112,4.75195,4.99831,4.99263,5.34795,5.34533,5.14554,4.84637,4.91492,4.67299,4.34032,4.61737,4.75263,4.52442,4.47725,4.9347,4.72622,4.68986,4.8536,5.05768,5.15688,5.07899,4.7131,4.4277,4.28228,4.69373,4.53398,4.58133,4.64944,4.81215,4.55044,4.55632,4.64654,4.40504,4.55142,4.67716,4.49055,4.64846,4.39912,4.4172,4.74705,4.32272,4.74834,5.03878,4.75091,4.74336,4.57316,4.39268,4.69255,4.68399,4.65211,4.66383,4.62048,5.05394,4.89493,4.80617,4.39802,4.28542,4.44676,4.71617,4.98477,4.79641,4.73403,4.42635,4.52247,4.367,4.28986,4.46687,4.18171,3.99415,4.09075,4.39065,4.82742,4.80627,5.15269,4.86057,5.1148,4.79033,4.88265,4.50361,4.54223,4.31311,4.33756,3.94819,3.89866,3.69072,3.88584,3.48862,3.41554,3.69025,3.37487,3.24264,3.23949,3.4973,3.63801,3.60261,3.85212,4.08518,4.01391,4.1548,4.30556,4.36,4.67693,5.01027,5.37318,6.00772,5.94627,5.97417,5.89786,5.90333,5.879,5.85754,5.95016,5.56024,5.77006,6.03138,6.31201,6.54142,6.80066,6.59494,6.36178,6.31477,6.32292,6.4905,6.8329,6.60264,6.76877,6.72988,7.17354,7.50993,7.52582,7.37418,7.35855,7.43722,7.64035,7.97184,8.05231,7.81813,7.89518,7.97034,7.72094,7.32916,7.64275,7.43899,7.75222,7.79531,7.63741,7.59526,7.24636,7.2343,7.38461,7.1727,7.3997,7.1598,7.32853,7.33449
5.1355,5.31791,5.23066,5.17227,4.78343,4.87445,4.8282,5.10516,5.04972,4.81331,4.70166,4.95697,5.01496,4.81223,4.91779,5.12428,5.24535,4.81082,4.82902,5.09174,5.01111,5.08299,4.89939,4.99434,4.76189,4.54558,4.50353,4.754,4.62263,4.93321,5.05414,4.75277,4.45275,4.29381,4.22438,4.50874,4.39386,4.73363,4.74744,4.87156,4.95929,4.62965,4.30953,4.51422,4.30218,4.35543,4.42334,4.87256,4.87879,5.10226,5.16448,5.02919,4.74601,4.47632,4.52577,4.62819,4.6636,4.73467,4.34079,4.63176,4.54638,4.38883,4.65142,4.82236,5.04711,5.31667,5.18473,4.75646,4.65396,4.90075,4.9791,4.74861,4.41688,4.77179,4.43007,4.20628,4.42281,4.53552,4.65058,4.47913,4.57293,4.72769,4.57749,4.5105,4.69942,4.24003,4.74668,5.07882,5.17082,5.23624,4.98284,4.58083,4.70123,4.65927,4.369,4.73032,4.62381,5.11995,5.01147,5.02138,4.95121,4.3583,4.50759,4.32335,4.40565,4.39914,4.80685,4.67683,4.37534,4.21142,3.95903,4.48479,4.25031,4.04223,4.09338,4.48279,4.48496,4.56573,5.10284,5.09884,5.22724,5.11624,4.71097,4.45622,4.63091,4.32495,4.09993,4.03142,3.82265,3.60791,3.83481,3.68726,3.41649,3.60183,3.44342,3.5996,3.35727,3.58754,3.73061,3.65869,4.04749,4.15456,3.84173,4.04606,4.0523,4.00715,4.37202,4.97299,5.03981,5.36151,5.61399,5.54287,5.57275,5.50344,5.39735,5.56047,5.6221,5.62745,5.75895,6.03461,6.46485,6.62848,6.87764,6.72425,6.48927,6.64032,6.63709,6.64274,6.75247,6.94164,6.95001,6.94111,6.90405,7.45856,7.6448,7.74377,7.72848,7.64142,7.80303,8.14733,8.28221,7.8372,8.08121,7.99726,7.99036,7.73618,7.54608,7.33897,7.83923,7.64307,7.63981,7.32293,7.33504,7.41647,7.46447,7.48085,7.55888,7.23445,7.21279,7.19339
5.28926,5.58173,5.55201,5.36753,5.12011,4.73322,4.53072,5.05965,4.8719,4.66345,4.421,4.76854,4.74673,4.90367,4.69523,4.80418,4.96916,5.04185,5.05517,4.8708,5.07014,4.80332,4.60197,5.09367,4.75546,4.43434,4.44867,4.72066,4.49631,4.57186,4.5324,4.50634,4.47158,4.18849,4.03505,4.25064,4.54865,4.37268,4.50236,4.40366,4.57909,4.35845,4.35848,4.23465,4.37304,4.13396,4.2822,4.50568,4.95171,5.14693,5.26247,5.00696,5.14006,4.58578,4.6322,4.56925,4.89047,4.57547,4.32712,4.52034,4.7082,4.68882,4.9096,4.9864,5.20484,5.2042,5.34475,4.96772,4.94276,4.68133,4.81482,4.99164,4.75439,4.53484,4.41079,4.26762,4.42666,4.52964,4.58367,4.5755,4.39761,4.27244,4.52907,4.77448,4.64115,4.65828,4.89598,4.79282,5.187,5.36725,4.97043,5.02684,4.78039,4.77254,4.4638,4.39207,4.33951,4.52149,4.84105,4.81057,4.60654,4.5615,4.46649,4.62386,4.69853,4.57494,4.89969,4.75706,4.85792,4.57217,4.38925,4.21013,3.95268,3.9295,3.89875,3.97752,4.04882,4.07487,4.67439,4.7951,4.99435,4.84878,4.84686,4.4199,4.52235,4.60327,4.35225,4.16438,4.22297,3.95366,3.80816,3.68374,3.29689,3.633,3.72246,3.57613,3.41078,3.21284,3.65179,3.52501,3.74257,3.74382,4.06602,4.2223,4.36148,4.19382,4.02002,4.45798,4.92858,5.23655,5.29487,5.19489,5.43401,5.53286,5.17604,5.13851,5.21654,5.53589,5.45119,5.72614,6.23726,6.41743,6.8851,6.97531,6.66966,6.6616,6.45708,6.81648,7.07054,6.7734,6.64432,6.75462,6.93367,7.47649,7.50326,7.66176,7.4622,7.29064,7.63308,7.72573,8.26439,8.1297,8.05539,7.86401,7.73876,7.74546,7.46382,7.51813,7.9067,7.7548,7.77476,7.77611,7.64169,7.32556,7.3294,7.22109,7.64045,7.59306,7.38659,7.53892
5.26262,5.23936,5.47756,5.4901,5.33669,4.81691,4.49132,4.53391,4.73585,4.42387,4.35585,4.5662,4.6411,4.71575,4.61328,4.8737,4.87272,5.24354,4.94317,4.91631,4.80454,4.67373,4.91596,5.16662,5.09561,4.97916,4.63057,4.73566,4.81339,4.88917,4.74146,4.67554,4.51108,4.31133,4.35619,4.46245,4.46476,4.38371,4.68247,4.35986,4.40655,4.51688,4.17045,4.23905,4.31029,4.36684,4.48698,4.34775,4.73496,5.07489,5.44751,5.11611,4.90348,4.75662,4.92576,4.54291,4.83974,4.83738,4.84472,4.72646,4.54371,4.34846,4.90946,5.20885,5.09583,5.38724,5.27641,5.01008,4.85384,4.68609,4.88689,4.76712,4.76391,4.40894,4.25794,4.4625,4.4654,4.4893,4.7959,4.50601,4.71432,4.71573,4.81121,4.73965,4.59935,4.73844,5.10149,4.93496,4.97382,4.88356,5.17136,5.38749,5.22505,4.72791,4.41926,4.56577,4.74997,4.58176,4.50576,4.46511,4.46255,4.80568,4.55816,4.79178,4.81877,4.80192,4.89806,4.69441,4.72651,4.49308,4.43427,4.20562,3.93056,4.20853,3.77395,4.02273,4.03053,4.34681,4.61463,4.95361,4.79109,4.98761,5.15671,4.51762,4.74055,4.73328,4.43617,4.13061,4.17067,3.91098,3.80469,3.44836,3.56642,3.44128,3.58449,3.57922,3.7405,3.76461,3.71108,3.6776,3.63261,3.95233,3.9155,4.09654,4.30823,3.95765,4.06017,4.49834,4.92855,5.32274,5.5752,5.6276,5.32435,5.41745,5.3134,5.36308,5.4145,5.73654,5.84698,5.61285,5.9321,6.47249,6.54886,6.86299,6.56247,6.85502,6.63323,6.69163,7.16775,6.72424,6.49399,6.58865,6.85005,7.20612,7.32624,7.34934,7.3335,7.33406,7.19122,7.33354,7.51069,7.9437,8.24538,8.29147,8.29165,7.90218,7.43604,7.26044,7.85758,7.6401,7.47764,7.67975,7.81156,7.475,7.62674,7.45826,7.78754,7.42133,7.16931,7.62163
5.13205,4.92547,4.99847,5.26246,5.00526,5.15077,4.72641,4.62149,4.65752,4.335,4.25827,4.67133,4.41317,4.46457,4.3209,4.40249,4.6943,4.86056,5.00106,5.14988,4.9832,4.75456,4.78624,4.91672,4.98567,4.97509,4.60933,4.57078,4.93775,4.70325,4.55995,4.58874,4.44444,4.32092,4.11048,4.09014,4.34607,4.17496,4.13533,4.00141,4.1629,4.54113,4.09214,4.40026,4.53363,4.21789,4.19125,4.41322,4.33244,4.57696,5.29685,5.43219,5.16946,4.77504,5.05515,5.01901,4.93427,4.89311,4.59053,4.95344,4.72172,4.62687,4.59264,4.65486,4.71456,5.12396,5.07024,4.8871,4.73855,4.82874,4.66345,4.897,4.60603,4.31672,4.12973,4.43319,4.44489,4.42737,4.57371,4.42353,4.34249,4.48432,4.36197,4.64236,4.48764,4.35398,4.89316,5.07194,4.90822,4.69589,5.18609,5.38478,5.44004,5.19673,4.66691,4.452,4.57364,4.71717,4.70931,4.35216,4.46265,4.50248,4.44871,4.87775,5.06038,4.63643,5.01172,4.95146,5.03552,4.94408,4.39538,4.25288,4.1324,4.00676,3.70573,3.94923,4.00701,4.05166,4.42411,4.88989,5.09475,5.11484,5.19139,4.99857,4.84252,4.66999,4.60531,4.10873,3.88744,3.88795,3.98218,4.00124,3.89493,3.78002,3.52147,3.6175,3.93114,3.84494,3.76803,3.59111,3.90729,4.1844,3.89196,3.85936,4.25171,4.21026,4.02315,4.43688,4.56673,5.11033,5.52617,5.82051,5.802,5.60351,5.36274,5.56196,5.67247,5.44116,5.40826,5.23531,5.44185,6.07993,6.57868,6.512,6.73182,6.98989,6.5932,6.38316,6.75252,6.96473,6.54763,6.38531,6.85771,6.91893,7.03206,7.10274,7.21332,7.27029,7.48575,7.46529,7.1984,7.56847,7.98073,8.37134,8.09222,8.11854,7.68824,7.37604,7.80937,7.94918,7.55167,7.73993,7.70145,7.40202,7.49791,7.61022,7.98867,7.481,7.57379,7.82483
